1.6959,1.683,1.6675,1.5839,1.6789,1.6091,1.7157,1.6842,2.1146,1.9551,1.9523,1.9351,1.7854,1.9159,1.9144,2.0363,1.9975,1.7189,1.8065,1.8597,1.845,1.8858,1.809,1.8386,1.8402,1.7998,1.7906,1.7889,1.7921,1.781,1.7357,1.7014,1.7419,1.7791,1.7864,1.824,1.7935,1.8408,1.7953,1.7752,1.7424,1.7805,1.722,1.7626,1.7609,1.8056,1.7282,1.6937,1.6726,1.6791,1.678,1.6336,1.6627,1.7052,1.7358,1.7566,1.8515,1.8634,1.937,1.8341,1.9334,1.9283,1.8576,1.8473,1.8038,1.7633,1.8568,1.8716,1.9056,1.9738,1.9623,1.9609,1.9766,2.1398,2.0504,1.9803,1.9036,1.8133,1.7359,1.7831,1.8818,1.8522,2.0435,2.3975,2.9342,3.0317,3.0355,3.4133,3.2969,3.8078,3.3198,2.8656,3.3132,3.2691,3.1106,2.8258,2.977,2.9898,3.625,3.6191,3.4672,3.4028,3.4712,3.4302,3.1761,3.0357,2.4954,2.2358,2.5378,2.5538,2.7814,2.7038,2.6853,2.6675,2.4875,2.3093,2.3201,2.6178,2.5004,2.3466,2.363,2.5431,2.5814,2.4218,2.2414,2.1065,2.0357,1.8876,1.7608,1.7597,1.8704,2.2104,2.1475,2.1309,2.6129,2.2953,2.0057,1.7002,1.935,2.0849,2.098,1.3872,1.4131,2.0406,1.2,1.0864,0.74437,0.37884,0.28895,0.25623,0.37753,0.23295,0.59519,0.74461,0.9538,0.86876,1.224,1.6313,1.2553,-1.4406,-4.5058,-4.3904,-3.6679,-3.9676,-3.9277,-3.5814,-3.5528,-1.7851,-1.4045,-2.1227,-2.8026,-3.0553,-3.0132,-3.2565,-4.2414,-4.323,-4.9777,-4.1157,-2.5446,-0.90013,-1.9183,-1.2231,-2.2919,-2.225,-2.8508,-3.4209,-4.0871,-4.588,-4.9628,-5.0605,-4.854,-3.8984,-3.2944,-3.1607,-3.3624,-3.2487,-3.062,-3.0522,-3.1543,-3.188,-3.1195,-3.1041,-3.1839,-3.1409,-3.2181,-3.1573,-3.0421,-3.261,-3.2447,-3.2355,-3.0808,-2.9935,-2.8245,-2.7418,-2.6847,-2.5214,-2.0076,-1.9808,-2.3373,-2.3288,-2.049,-1.8817,-1.9292,-2.0311,-2.0956,-1.8345,-1.6792,-1.4392,-1.1106,-0.97218,0.30138,1.4342,1.6301,1.7763,2.4964,3.003,3.5323,3.5722,2.9983,2.7207,2.7132,2.7011,3.2837,3.3901,3.4105,3.4552,2.6015,2.5641,2.3812,2.3343,2.3548,2.2313,2.2908,2.2313,2.2123,2.1444,2.2527,2.2141,2.1383,2.1583,2.018,1.8754,1.8793,1.8461,1.8708,1.9671,2.0373,1.9994,2.0336,2.0028,1.9896,1.9871,1.9153,1.8606,1.8145,1.7372,1.7042,1.7644,1.7018,1.6706,1.6419,1.6758,1.8125,1.8557,1.9042,1.989,1.9771,2.0624,2.1398,2.1575,2.2994,2.1012,2.1596,2.1814,2.2348,2.2332,2.1802,2.056,1.8921,1.8664,1.8566,1.6791,1.4994,1.6707,1.6906,1.4482,1.3765,1.2527,1.3597,1.2747,0.68998,-0.55773,-1.4986,-1.4282,-1.9424,-2.6965,-2.5397,-2.6929,-2.6854,-2.7235,-2.5485,-2.226,-2.1883,-2.3597,-2.4584,-2.3389,-2.1384,-2.1039,-1.9127,-1.6873,-1.1657,-1.2893,-1.7663,-2.057,-2.245,-2.1703,-2.0898,-2.0796,-1.7229,-1.9473,-2.2259,-2.8486,-3.0546,-3.0675,-2.9255,-0.63049,0.94782,-0.49077,-0.026936,1.3026,1.5063,1.5335,1.4786,1.5468,1.548,1.5321,1.7434,1.6839,1.7686,1.6237,1.6959
1.597,1.7457,1.832,1.7112,1.8713,2.0165,2.0769,2.0896,1.9093,1.9181,1.9551,2.0178,2.2212,2.1997,2.0038,1.9369,2.0161,2.2594,1.9845,1.9804,1.9421,1.9055,1.8935,1.8838,1.9609,1.9343,1.9246,1.9504,1.8621,1.9107,1.8377,1.7724,1.774,1.7862,1.8369,1.8073,1.8307,1.8113,1.8348,1.8093,1.8122,1.7844,1.7959,1.7737,1.8005,1.8004,1.6891,1.7051,1.6824,1.6552,1.6582,1.6624,1.642,1.6975,1.7653,1.8497,1.9066,1.9245,2.0111,1.9398,1.929,1.9063,1.84,1.8039,1.7372,1.8267,1.8301,2.0014,2.0603,2.0001,2.0261,2.0586,2.0938,2.1673,2.2937,2.3106,2.3377,2.2594,2.0871,1.9503,1.9597,1.965,1.9963,2.2097,2.7762,3.1059,3.7286,3.8802,4.1009,3.8918,3.9617,3.8271,2.7429,2.6284,2.5265,2.7773,3.3548,3.9688,3.7946,3.4978,3.4751,3.3286,3.1556,3.1111,3.0715,2.6246,2.4749,2.4369,2.7534,2.8858,3.0892,3.1728,3.0368,2.6262,2.5073,2.3366,2.2767,2.4404,2.3665,2.2441,2.3597,2.5361,2.5839,2.3216,2.0974,1.9843,2.1381,2.0273,1.7361,1.8456,1.8742,2.0333,2.071,2.147,2.4596,2.1124,1.8055,1.6537,2.0091,2.319,2.1035,1.0129,1.1733,2.0856,1.7084,1.2737,1.0913,0.64352,0.41538,0.69748,0.46351,0.65819,0.209,0.43393,0.11042,1.2421,1.5711,0.55934,-2.2593,-5.0148,-4.1064,-3.6228,-3.7977,-3.7626,-3.8993,-3.9435,-3.7092,-2.9891,-1.2138,-3.5095,-2.6334,-3.0638,-2.6993,-3.3248,-3.1377,-2.9845,-2.8638,-3.2526,-3.5369,-3.9171,-4.1395,-4.298,-4.1233,-4.1543,-3.6648,-3.6045,-3.0036,-3.2915,-3.4218,-3.3944,-3.6723,-3.6027,-3.4463,-3.3383,-3.5208,-3.4215,-3.1758,-3.1337,-3.2461,-3.2206,-3.1934,-3.1612,-3.1625,-3.139,-3.2781,-3.0303,-3.2195,-3.2922,-3.2926,-3.2197,-3.0643,-2.9329,-2.9074,-2.6984,-2.5654,-2.5554,-2.5766,-2.3087,-2.1499,-2.1154,-2.2943,-2.2177,-2.3171,-2.1202,-2.027,-1.777,-1.7543,-1.4782,-1.407,-1.055,-0.5132,-0.51008,0.83346,2.2364,2.3941,1.7945,2.458,3.0874,3.1377,2.8801,2.8841,2.9623,3.0561,3.3918,3.3061,3.5516,2.9995,2.6024,2.4176,2.4929,2.4687,2.4912,2.5279,2.4136,2.3618,2.3005,2.2466,2.3777,2.3175,2.0974,2.1297,1.9528,1.922,1.9098,1.9325,2.0126,2.0424,2.0503,2.0492,2.071,2.1242,1.9602,1.9649,1.9703,1.9502,1.8361,1.8312,1.8772,1.845,1.9308,1.9812,1.9212,1.9458,1.9191,1.9711,2.0583,2.0809,2.1185,2.1663,2.1282,2.2296,2.0349,2.1045,1.8477,1.4543,1.5559,1.6617,1.5637,1.5095,1.5617,1.5411,1.4278,1.6465,2.0518,1.5421,1.4424,1.4405,1.3311,1.3465,1.3817,0.86964,-0.28064,-0.91113,-1.2599,-1.1838,-2.2152,-2.6002,-2.6041,-2.7186,-2.693,-2.6677,-2.5034,-2.507,-2.4558,-2.3322,-2.2511,-2.3728,-2.171,-1.9004,-1.74,-1.3015,-1.3758,-1.2879,-1.7576,-2.0253,-2.0562,-2.3614,-2.3555,-2.4081,-2.0286,-2.5738,-2.5482,-2.8552,-3.2454,-2.9508,-2.7527,-2.0744,-0.81796,-0.26695,1.369,1.5087,1.6102,1.498,1.6045,1.6722,1.5925,1.5674,1.6254,1.5765,1.6376,1.597
1.8432,1.9085,1.8583,1.8224,1.8372,1.9668,1.9038,2.0023,1.9511,1.9753,2.2049,2.1534,2.1196,2.3117,2.3899,2.2415,2.1456,1.9305,2.1301,2.5126,2.7442,2.2806,2.0969,2.4857,2.2461,1.9721,2.0218,1.9809,2.0025,1.9325,1.9749,1.8682,1.8643,1.8603,1.8274,1.8131,1.8476,1.8628,1.8359,1.8265,1.8395,1.8363,1.8656,1.844,1.8092,1.7854,1.7192,1.7362,1.7137,1.7013,1.7019,1.6841,1.6956,1.7031,1.7555,1.8424,1.9103,1.9351,1.9861,2.0536,1.8782,1.9079,1.8079,1.7979,1.8334,1.9077,1.9491,2.2104,2.266,2.1619,2.1815,2.2475,2.2144,2.3766,2.5626,2.6809,2.7109,2.6473,2.5365,2.4249,2.1997,2.3649,2.3885,2.4671,2.4211,3.3487,3.5466,3.9354,4.529,4.0096,3.8448,3.4963,3.2736,2.7524,3.0577,3.3605,3.758,3.6344,3.689,3.7642,3.5171,3.2784,3.1501,3.195,2.9614,2.7239,2.6213,2.988,3.2327,3.2954,3.1618,2.8662,2.7588,2.7133,2.5366,2.4729,2.4336,2.3455,2.2631,2.3624,2.3804,2.5634,2.5894,2.2508,2.0848,1.9638,2.046,2.0822,2.0383,2.002,1.8491,2.0583,2.1629,1.9562,1.829,1.7925,1.6891,1.9647,2.4441,2.5478,1.96,1.2921,1.8506,1.7516,1.5675,1.4855,0.95316,0.57665,0.52889,0.29829,0.65004,-0.11134,-0.13571,-0.94215,0.84326,1.3846,-0.60753,-4.7073,-4.9688,-3.8871,-3.9884,-3.9734,-3.9982,-3.8153,-4.1337,-3.9271,-3.7056,-4.0255,-2.3021,-1.6775,-4.2107,-3.5273,-3.2389,-3.4809,-3.4082,-2.8752,-3.3567,-3.4176,-3.6289,-3.5367,-3.4351,-3.4498,-3.3863,-3.5398,-3.768,-3.6763,-3.4973,-3.3448,-3.2873,-3.404,-3.5996,-3.7023,-3.7032,-3.543,-3.5494,-3.4516,-3.2574,-3.1903,-3.2844,-3.2475,-3.1613,-3.1979,-3.2414,-3.27,-3.2636,-3.2219,-3.2364,-3.2058,-3.1736,-3.0797,-3.0084,-2.8705,-3.0135,-2.8339,-2.7386,-2.6289,-2.5508,-2.3707,-2.3389,-2.3308,-2.2767,-1.9315,-2.3749,-2.1721,-2.0414,-2.0289,-1.4564,-1.4737,-1.4199,-0.98746,-0.98958,-0.74639,-0.86204,0.66172,1.7647,2.0733,2.1531,1.5823,2.3105,3.2593,3.1941,2.8075,2.7282,3.051,2.9824,3.1584,3.4269,3.0379,2.8246,2.7471,2.5455,2.5742,2.6033,2.5897,2.5909,2.461,2.3781,2.3403,2.2432,2.1737,2.2919,2.1826,2.0788,1.9648,2.0583,2.0356,2.0731,2.0985,2.1357,2.1916,2.1869,2.1356,2.0172,2.0817,2.0062,2.0773,2.0258,2.0013,2.0027,1.9948,2.0373,2.0277,2.0228,2.0191,2.0964,2.1407,2.2068,2.0213,1.8883,2.2535,2.3394,1.8652,1.5266,1.747,2.225,2.0262,1.4764,1.48,1.6127,1.5617,1.4308,1.6145,1.9926,2.0092,1.9368,1.7811,1.8128,1.471,1.4174,1.4472,1.0766,-0.22868,-0.62392,-1.0874,-0.9617,-0.017218,-1.2257,-2.2732,-2.5178,-2.7433,-2.7025,-2.6702,-2.6602,-2.622,-2.2904,-2.4199,-2.2222,-2.2809,-2.1433,-1.6893,-1.6796,-1.0794,-1.0127,-1.211,-1.7425,-1.8947,-1.9429,-2.4078,-2.2822,-2.5513,-2.4062,-2.6551,-2.7789,-3.0725,-3.1185,-2.986,-2.9179,-0.90991,0.47277,1.1897,1.6251,1.5141,1.5488,1.643,1.6899,1.5209,1.6715,1.7034,1.6459,1.8606,1.8432
1.9449,1.8851,1.9562,1.9077,1.903,2.151,2.1177,2.2414,2.3547,2.4992,2.3906,2.3053,2.3426,2.2512,2.2223,2.3727,2.253,1.8765,1.8655,2.0227,2.0241,1.9008,1.8877,1.8558,2.5723,2.7652,2.0527,1.9248,1.901,1.9521,1.9267,1.8952,1.8845,1.9161,1.8956,1.882,1.8818,1.9177,1.9756,1.9714,1.9396,1.872,1.8539,1.795,1.8939,1.7918,1.7851,1.7403,1.7467,1.7443,1.7353,1.7222,1.728,1.7342,1.766,1.9319,1.9032,1.9484,2.016,1.9598,1.9805,1.8797,1.847,1.7769,1.8686,1.9167,2.1119,2.2674,2.1193,2.1398,2.1571,2.2704,2.4424,2.5575,2.4924,2.5686,2.3959,2.481,2.4515,2.3933,2.4889,2.5782,2.5657,1.9665,2.1359,2.1202,2.0838,2.6392,3.3743,4.2571,4.4606,4.117,2.9269,3.0055,3.0816,3.58,3.8438,4.1516,4.2951,4.2191,4.0434,3.6235,3.4165,3.2221,2.9358,2.9,3.0952,3.3994,3.4811,3.3432,3.068,3.01,2.7877,2.6513,2.5907,2.4625,2.382,2.3568,2.3807,2.493,2.693,2.8369,2.4263,2.0717,1.92,1.9688,1.9925,2.0534,2.1377,2.1104,2.177,2.0136,1.8458,1.8877,1.7936,1.832,1.9215,2.3205,2.5718,2.3276,1.4347,1.0214,1.7505,1.5153,1.3882,1.243,-0.13679,-0.34046,-0.6781,-0.88072,-1.5707,-1.3493,-1.7935,0.22961,0.27531,-0.59921,-5.2612,-3.8742,-3.3384,-3.6233,-3.7195,-3.7631,-3.8587,-4.0763,-3.9588,-4.091,-4.1615,-4.2174,-4.3226,-1.5718,-4.8142,-3.868,-3.8248,-4.0996,-3.2124,-3.0286,-3.5104,-3.6763,-3.8683,-3.8463,-3.7932,-3.7976,-3.7626,-3.8082,-3.8871,-3.8187,-3.7451,-3.5935,-3.4647,-3.6175,-3.6746,-3.6376,-3.6337,-3.5461,-3.4171,-3.4847,-3.3171,-3.2006,-3.2562,-3.2494,-3.2506,-3.1774,-3.2139,-3.3197,-3.2815,-3.3492,-3.3029,-3.3898,-3.2352,-2.9271,-2.9282,-3.1019,-3.0574,-2.8706,-2.7956,-2.7287,-2.7544,-2.6245,-2.6155,-2.522,-2.4208,-2.2486,-2.2757,-2.2591,-2.2173,-2.0815,-2.0067,-1.1996,-1.213,-1.071,-0.89645,-0.81306,-0.78506,-0.93748,0.60327,1.5801,2.2436,2.1359,1.9322,3.1847,2.5548,2.4771,2.4633,2.5686,2.8762,3.0446,3.0148,3.563,2.8861,2.6998,2.7341,2.8166,2.567,2.4941,2.4692,2.4004,2.4412,2.4041,2.4154,2.2949,2.2447,2.1924,2.1912,2.024,2.1092,2.1427,2.1535,2.1779,2.1874,2.2798,2.1602,1.9332,1.9588,1.9267,2.0117,2.0961,2.1975,2.1597,2.1683,2.129,2.0837,2.0893,2.0813,2.1244,2.1899,2.2254,2.2469,2.191,2.162,2.4223,1.9775,1.917,2.2351,1.974,1.8658,1.7764,1.6545,1.7605,1.6802,1.5146,1.3143,1.9367,2.1524,2.176,1.929,1.9992,1.8825,1.6955,1.6166,1.5816,1.6247,1.5298,1.1525,0.933,0.93751,1.5334,0.55725,-1.837,-2.4364,-2.7563,-2.8087,-2.8214,-2.7607,-2.6622,-2.5856,-2.5469,-2.4855,-2.2358,-2.201,-1.9691,-1.6165,-1.4157,-0.7751,-0.85838,-1.5404,-1.7807,-2.2803,-2.5425,-2.484,-2.5724,-2.6096,-2.6978,-2.6697,-2.814,-3.0074,-3.1781,-2.7777,-2.5782,-1.9532,-2.0504,-1.1824,-0.0097547,1.3307,1.8813,1.6157,1.6324,1.9005,1.8494,1.8957,1.7814,1.9449
1.9325,1.9938,1.9318,2.0984,2.1891,2.0226,2.4347,2.522,2.6539,3.1679,3.7084,3.8332,3.8461,3.6318,3.1879,2.6777,2.0678,2.0272,2.0103,1.9262,1.908,1.9195,1.935,2.3746,2.1158,2.7368,2.7237,1.9565,2.0017,1.917,1.8792,1.9047,1.8235,1.8946,1.9304,1.8762,1.914,1.9027,1.8268,1.8245,1.8576,1.8653,1.8885,1.8847,1.9475,1.8396,1.8461,1.7655,1.7819,1.8118,1.7604,1.7587,1.7852,1.7351,1.8093,1.8705,1.8932,1.8782,1.9243,1.9773,1.986,1.9311,1.8622,1.8882,1.916,1.9216,2.0588,2.1237,2.0837,2.1588,2.2104,2.308,2.3507,2.3737,2.2488,2.2823,2.211,2.3007,2.4038,2.2041,2.0749,2.3477,2.6888,3.1515,3.3186,3.7705,3.79,2.5483,2.3796,2.6276,3.5633,4.4829,4.4426,3.6268,3.3093,3.5936,3.7841,3.977,4.2929,4.1322,4.3997,4.4734,3.7545,3.5575,3.4248,3.2042,3.2202,3.2709,3.1824,3.0603,2.9532,2.9941,3.0458,2.8653,2.7478,2.6682,2.4632,2.5315,2.5716,2.6849,2.9803,2.6612,2.2525,1.9958,1.9236,1.9702,1.9605,1.9823,2.0496,2.2881,1.991,1.8925,1.8882,1.9373,1.9583,2.0834,2.2397,2.7095,2.4924,1.5494,0.86866,0.70299,1.8354,1.9757,0.32088,-1.0948,-1.5693,-1.4669,-1.5917,-1.4035,-1.49,-1.0243,0.84486,-0.097053,-1.5972,-5.0421,-2.9991,-3.0582,-3.0545,-3.2982,-3.3955,-3.6226,-3.9011,-3.8814,-4.0561,-4.0706,-3.9544,-4.2436,-4.7244,-2.5454,-2.9677,-4.1892,-4.3702,-3.7288,-3.7553,-3.8883,-3.7025,-3.675,-3.8828,-3.804,-3.6144,-3.8945,-3.8296,-3.9107,-3.9125,-3.6432,-3.7947,-3.6651,-3.6818,-3.6749,-3.6415,-3.7634,-3.5637,-3.6201,-3.5507,-3.4024,-3.3232,-3.2725,-3.1441,-3.186,-3.2464,-3.2,-3.2912,-3.2155,-3.2765,-3.4559,-3.4584,-3.3819,-3.4085,-3.3346,-3.3195,-3.2095,-3.1594,-3.1026,-3.0185,-2.9934,-2.8753,-2.7286,-2.6605,-2.5294,-2.5137,-2.4142,-2.3625,-2.3319,-2.3257,-2.2021,-2.0587,-1.7086,-1.3314,-0.78633,-0.97871,-0.80165,-0.89807,-0.84808,-0.47407,1.0726,1.8195,1.8285,2.4863,3.0147,2.2923,2.1761,2.3505,2.5909,3.0365,3.324,3.1755,3.5438,3.2373,3.5509,3.3015,3.121,2.6764,2.7661,2.6857,2.5809,2.6169,2.599,2.4432,2.4264,2.3678,2.3145,2.2301,2.0903,2.2298,2.2711,2.2137,2.2143,2.1853,1.9613,1.995,2.027,2.0647,1.9695,1.9922,1.9848,2.2528,2.2884,2.2873,2.2357,2.1608,2.1386,2.1749,2.1947,2.1234,2.2097,2.2847,2.206,2.1139,2.0782,2.0704,2.1923,1.9715,2.2471,2.0035,1.8231,1.796,1.7679,1.7184,1.8429,1.5388,1.3074,1.4834,1.6412,1.7223,1.6941,1.8443,1.8914,1.659,1.7193,1.7097,1.6955,1.7242,0.91042,1.578,1.702,1.5216,-1.3955,-2.2934,-2.6587,-2.7141,-2.794,-2.7807,-2.6327,-2.5496,-2.3777,-2.4148,-2.1146,-2.1147,-1.7733,-1.4541,-1.5025,-0.9898,-0.70041,-1.0945,-1.4137,-1.5368,-1.8138,-2.4886,-2.6729,-2.565,-2.7701,-2.603,-2.6888,-2.927,-3.0517,-3.0519,-2.7406,-3.0015,-2.9753,-2.7308,-2.3601,-2.6072,-2.3305,-0.57414,1.7959,1.5636,1.8115,1.7691,1.9273,1.9325
2.0167,2.1895,2.4418,2.4361,2.3954,2.1279,2.6102,3.7367,3.7771,2.5484,3.3629,3.0081,2.7385,1.9332,2.5404,2.3375,2.1034,1.9725,2.0428,1.993,1.9306,2.0276,2.0046,2.3457,2.3278,2.3596,2.6901,2.201,1.9677,1.9362,1.88,1.8384,1.816,1.8904,1.9615,1.8284,1.8699,1.854,1.8735,1.9192,1.8794,1.992,1.9061,1.8795,1.9665,1.9571,1.8533,1.8086,1.8388,1.8342,1.8084,1.8297,1.7922,1.8037,1.8616,1.8723,1.9601,1.9474,1.9941,1.942,1.9061,1.8964,1.9219,1.9419,1.9518,2.0104,1.9498,2.022,2.0658,2.1272,2.2165,2.2158,2.3268,2.2598,2.181,2.2407,2.2494,2.1752,2.2846,2.2673,2.2006,2.6249,2.2607,3.1953,3.0654,2.5776,2.1605,2.3469,2.5025,2.7469,2.881,2.9417,3.3266,3.8779,4.303,3.2219,3.7812,3.8889,3.4656,3.5076,3.6018,3.9069,4.0784,3.4866,3.3208,3.2563,3.3193,3.2947,3.1184,3.1012,2.8773,3.0061,2.8154,2.9587,3.0153,2.856,2.8136,2.8167,2.8375,2.7996,2.7415,2.5299,2.1733,2.0157,1.9839,1.9601,2.04,1.9143,2.0424,1.9582,2.0375,2.156,2.1558,1.9837,1.9473,2.1096,2.6912,2.6217,1.6513,0.073308,0.53687,1.3229,1.8558,1.8549,0.66314,-1.5343,-1.349,-1.4686,-1.1083,-0.62321,1.2558,0.5301,-0.77391,-4.2228,-5.6288,-3.0513,-3.0293,-2.8189,-3.1824,-3.2206,-3.5225,-3.773,-3.8933,-3.7671,-3.9807,-3.9757,-3.9635,-4.0051,-4.4528,-2.3091,-2.1387,-4.2046,-4.1354,-3.714,-3.9163,-3.6572,-3.8521,-3.8307,-3.6702,-3.8243,-3.7806,-3.6729,-3.7629,-3.717,-3.8473,-3.8837,-3.9185,-3.7765,-3.6973,-3.6614,-3.7596,-3.7058,-3.7249,-3.5435,-3.4905,-3.4569,-3.3505,-3.2644,-3.0318,-3.1547,-3.3109,-3.2295,-3.3315,-3.2753,-3.3634,-3.2976,-3.4521,-3.391,-3.3364,-3.3254,-3.3231,-3.219,-3.1971,-2.988,-2.9331,-2.9109,-2.8058,-2.7516,-2.6249,-2.5649,-2.4991,-2.4929,-2.3542,-2.3545,-2.3542,-2.0079,-1.9805,-1.7861,-1.3811,-0.7891,-0.35588,-0.86957,-0.91009,-0.93099,-0.68879,0.71492,1.9128,2.1038,2.632,2.6225,2.2879,2.0337,2.81,2.894,2.9424,3.5019,3.749,4.0782,3.4842,3.4943,3.4226,2.9998,2.8402,2.8773,2.6908,2.8286,2.8033,2.7229,2.5974,2.4584,2.4476,2.4337,2.2415,2.233,2.2276,2.2614,2.2542,2.179,2.2175,2.3167,2.3613,2.3758,2.2778,2.1165,2.05,2.0603,2.0277,2.0565,2.06,2.0941,2.1142,2.244,2.1622,2.0749,2.1057,2.1442,2.1772,1.8622,2.0692,2.2334,2.273,2.1815,2.0323,2.0355,1.908,1.9999,1.9144,1.8725,1.8162,1.9925,1.8289,1.6918,1.4287,1.6689,1.7769,1.7269,1.6935,1.8348,1.7598,1.8044,1.7999,1.7438,1.6291,0.54959,0.086971,-1.5118,-2.776,-2.7069,-2.7586,-2.6876,-2.7051,-2.7624,-2.5827,-2.5748,-2.5132,-2.1388,-2.3042,-2.0103,-1.7487,-1.5608,-1.3443,-1.1435,-0.48522,-0.72678,-1.0197,-1.199,-1.3663,-1.855,-2.1568,-2.7304,-2.7918,-2.5443,-2.2042,-2.7424,-2.3693,-2.6796,-2.8734,-2.7351,-2.7761,-2.9974,-2.9635,-2.9936,-3.0997,-2.7383,-2.8726,-2.0605,0.85842,1.8684,1.7014,1.8682,2.0167
1.9947,2.1462,2.425,2.8861,2.9754,2.358,3.5256,3.7544,1.7395,2.316,1.9316,1.8433,1.8947,1.9559,1.9207,2.4391,2.3363,2.0831,2.1053,2.011,2.042,1.9839,2.4684,2.5644,2.3377,2.5049,2.1804,1.941,1.9385,1.9652,1.8409,1.8328,1.775,1.8231,2.2832,2.0836,1.8792,1.9295,2.1498,1.8921,1.9978,2.1897,2.2299,2.19,2.1486,2.0355,1.8782,1.8921,1.8674,1.8836,1.8669,1.8754,1.8321,1.8743,1.9432,1.9784,2.0094,2.0259,2.0637,1.9242,1.9479,1.9392,1.9659,1.9881,1.9994,2.0022,2.0341,2.0182,2.0303,2.1185,2.157,2.1734,2.1782,2.3759,2.2829,2.2422,2.3851,2.298,2.3927,3.6131,4.9151,4.3388,2.7529,2.1283,2.1515,2.3017,2.2988,2.3026,2.5558,2.7217,2.8351,3.287,3.1341,3.235,3.3934,3.795,3.3996,3.7815,4.3894,4.0922,3.7342,3.507,3.5501,3.1712,3.1461,3.1927,3.1506,3.0392,2.9705,2.9956,2.8641,2.827,2.9102,3.0697,3.2818,3.209,2.7722,2.9169,2.8132,2.9877,2.7781,2.2652,2.1112,2.0298,2.0252,2.0693,2.0647,2.0576,2.1306,2.4625,2.2182,2.4116,2.0505,2.059,2.1737,2.6547,2.4339,1.5596,-0.21721,0.33064,1.3607,1.7744,2.0154,1.7741,1.6773,-0.25249,-0.80062,0.51758,2.0815,1.5683,0.37881,-3.0682,-6.1947,-5.0191,-3.2434,-3.1049,-2.9132,-3.2196,-3.0827,-3.2903,-3.6004,-3.7811,-3.7964,-3.9551,-3.8384,-4.1161,-3.8878,-3.7461,-3.6577,-4.4256,-0.89645,-4.3225,-3.742,-3.8089,-4.2759,-3.512,-3.912,-3.6759,-3.6816,-3.9058,-3.7434,-3.808,-3.7388,-3.8973,-3.9023,-3.9306,-3.8817,-3.8768,-3.7006,-3.923,-3.9834,-3.8054,-3.7396,-3.6438,-3.4713,-3.4599,-3.3813,-3.3998,-3.3045,-3.3304,-3.3068,-3.3791,-3.3219,-3.2631,-3.3268,-3.4588,-3.3485,-3.3424,-3.347,-3.324,-3.3045,-3.2662,-3.1198,-3.0829,-2.9629,-2.7973,-2.7541,-2.7197,-2.5306,-2.4215,-2.5191,-2.3624,-2.3364,-2.2125,-2.231,-2.0298,-2.0239,-1.8129,-1.6892,-0.99051,-0.70456,-0.89958,-0.89271,-0.93978,-0.99054,0.70421,1.9794,2.0226,3.0486,2.5953,2.9537,3.3412,3.312,3.3904,3.7821,4.0426,3.899,4.0608,4.1152,4.2771,4.7531,3.4756,3.7415,3.1773,3.0823,3.0356,2.9189,2.7755,2.6436,2.5256,2.5073,2.3337,2.3919,2.4527,2.226,2.2594,2.2213,2.1919,2.2453,2.2647,2.324,2.3205,2.1271,2.1121,2.0838,2.1856,2.2156,2.0915,2.0886,2.1119,2.1382,2.213,2.3007,2.2277,2.0381,1.9289,2.1035,2.0562,2.3087,2.5471,2.2123,1.9712,2.0558,1.9206,1.8449,1.9763,2.0458,2.0193,1.9294,1.7861,1.7889,1.7398,1.824,1.5669,1.6665,1.1104,1.8862,1.8263,1.8764,1.913,1.8088,1.358,-0.94449,-1.6716,-1.6767,-2.392,-2.9234,-2.845,-2.8017,-1.8811,-1.6137,-2.0799,-2.3995,-2.5791,-2.0735,-2.2281,-1.489,-1.7468,-1.4099,-1.1454,-1.1119,-0.66285,-0.14629,-0.77556,-1.0241,-0.92801,-1.1656,-1.4932,-2.0415,-2.1672,-2.305,-2.5507,-2.6323,-2.1933,-1.9586,-2.0629,-2.5258,-1.5356,-2.2006,-2.5253,-2.5701,-3.1404,-2.9937,-2.7893,-2.7664,-2.5965,-2.4516,-0.14763,1.6159,1.9959,1.9947
2.1375,2.1663,2.3323,2.7067,2.2341,2.2611,2.6074,3.5451,2.1244,0.72824,2.2635,2.5631,2.3593,1.9672,1.9875,1.9234,2.3349,3.2293,2.8957,2.8307,2.585,2.2239,2.4576,2.0286,2.1511,2.0914,2.0768,2.0099,2.0499,1.9124,1.9086,1.1074,0.36977,0.11682,0.30459,-0.37835,-0.047563,-0.16231,-0.073885,1.5267,3.2891,3.12,2.838,2.6479,2.2341,2.1893,1.9941,1.9028,1.962,1.9119,1.9237,1.9788,2.1285,2.0616,2.1786,2.1832,2.102,2.0552,2.1126,1.9873,1.9852,2.026,1.999,2.0576,2.0422,2.0607,2.1101,2.1162,2.5769,2.4651,2.259,2.3317,2.2786,2.37,2.5031,2.7847,2.7134,2.5842,2.7157,2.8504,2.0545,2.4988,3.7216,4.4056,4.8342,4.1728,3.1709,2.6163,3.2432,3.1883,2.7666,3.1527,3.8581,3.5507,2.9776,2.2639,3.0514,3.1547,3.2792,3.3561,3.2512,3.0932,3.1178,3.543,3.3795,3.3669,3.3975,3.2179,3.0223,2.778,2.8078,2.9951,2.9293,2.9816,3.0028,3.106,3.0264,3.2741,3.1282,2.822,2.3811,2.2149,2.1115,2.0998,2.1184,2.1457,2.1414,2.2774,2.6723,2.4567,2.5307,2.3428,2.139,2.4107,2.578,2.5256,1.3009,-0.37303,-0.799,-0.92208,1.0799,1.5214,2.2094,2.5255,2.0061,1.8989,1.7651,1.7505,1.0899,-2.6428,-6.218,-5.0921,-3.3198,-3.2703,-3.1787,-3.4095,-3.4879,-3.5158,-3.4961,-3.6289,-3.3592,-3.6085,-3.896,-3.7195,-3.8025,-3.8727,-3.614,-3.3594,-3.5562,-3.9496,-2.7634,-3.8163,-3.5348,-3.3937,-3.8548,-4.1002,-3.6309,-3.8247,-3.7726,-3.7658,-3.7118,-3.7715,-3.6414,-3.5508,-3.7981,-3.9716,-3.9148,-3.9786,-3.6277,-3.7117,-3.7612,-3.7693,-3.6717,-3.8167,-3.5325,-3.4124,-3.6192,-3.4925,-3.5004,-3.3542,-3.3937,-3.4526,-3.383,-3.214,-3.3591,-3.4851,-3.4871,-3.3501,-3.195,-3.2924,-3.228,-3.2511,-3.1188,-3.0671,-2.9568,-2.738,-2.7137,-2.4262,-2.1503,-2.2737,-2.3658,-2.2707,-2.2055,-2.1473,-1.9493,-1.9652,-1.8271,-1.774,-1.5981,-1.4049,-1.1275,-0.69042,-0.82992,-0.92841,-1.2232,0.83939,2.0816,2.2702,3.3496,3.1724,3.4839,3.6143,3.2656,2.6885,3.446,4.2849,4.4231,3.9731,3.475,4.1356,4.7881,4.4654,3.1552,4.0537,3.2972,3.3313,3.8104,2.9083,2.7685,2.611,2.4662,2.4887,2.3789,2.484,2.4692,2.3499,2.2702,2.3511,2.2952,2.2674,2.2564,2.2321,2.237,2.1176,2.2459,2.2788,2.164,2.1676,2.142,2.3675,2.3942,2.1695,2.0882,2.0349,2.1455,2.423,2.526,2.3135,2.4143,2.3221,1.971,1.9642,1.8164,1.8104,1.992,2.0414,1.8381,1.7697,1.8098,1.9045,1.9361,1.7177,0.31771,-0.75967,-1.1585,-1.2652,-1.0206,0.81796,1.9364,1.9455,1.9234,0.95094,-1.8418,-2.1506,-1.9833,-2.5182,-2.7911,-2.8975,-2.7883,-2.9889,-2.7923,-1.9476,-2.2489,-1.9682,-1.8039,-1.7891,-1.6871,-1.7392,-1.3764,-0.86238,-0.88879,-0.46643,-0.40744,-0.74761,-0.87649,-1.2597,-1.0835,-1.6621,-1.2842,-1.9329,-2.2452,-2.891,-2.2995,-1.5866,-2.8772,-2.8716,-2.3125,-2.9006,-3.1782,-3.0916,-2.6065,0.45545,1.2342,0.47746,-0.36663,0.66984,-0.97532,0.070289,1.5628,2.1136,2.1375
3.2107,2.8072,2.7135,2.0341,1.9353,1.4354,1.2879,-0.13384,-0.85607,0.55719,1.9605,2.2544,2.2995,2.8018,1.9884,2.0449,1.8694,2.0295,2.6656,3.3251,3.3644,2.8082,2.6335,2.8846,2.7119,2.6035,2.4573,2.2734,2.0574,0.5763,0.021136,-0.048306,-0.044658,-0.058834,-0.16802,-0.24162,-0.071365,-0.22364,-0.05441,-0.12021,0.92494,2.3931,3.9119,4.829,3.6614,3.1698,2.8003,2.4437,2.0018,1.9165,2.033,1.9541,1.9935,2.1256,2.0854,2.256,2.2093,2.157,2.1312,2.0895,2.0666,2.0363,2.1149,2.1867,2.1848,2.2299,2.1719,2.2286,2.0702,2.2853,2.8992,2.4745,2.7693,2.795,2.4583,3.0059,3.8885,4.9699,4.8017,3.9935,4.0988,4.1576,4.2226,4.8885,4.426,4.9472,5.2599,5.6651,3.0619,2.2762,2.8202,2.5394,2.4966,2.8598,3.9739,3.9788,3.1459,3.5225,3.4513,3.3824,3.3885,3.581,3.6396,3.2068,3.5759,3.628,3.3511,3.1335,2.9347,3.1941,3.1648,3.0159,3.0615,3.0441,3.0655,3.103,3.3586,3.3167,3.2428,2.6901,2.3777,2.3221,2.2513,2.1659,2.1193,2.3328,2.3103,2.4709,2.7067,2.6117,2.1883,2.4144,2.1041,2.4978,2.4339,0.32231,-1.8391,-1.5267,-1.5895,-1.5442,0.79961,2.4522,2.3152,2.4804,2.0999,1.9046,0.84153,-1.412,-5.189,-4.9402,-2.9742,-2.9491,-3.0582,-3.1954,-3.3745,-3.295,-3.5293,-3.3945,-3.5695,-3.425,-3.4217,-3.497,-3.6585,-3.5002,-3.7145,-3.5007,-2.6462,-2.8297,-2.8699,-3.2776,-2.2932,-3.3213,-3.3504,-2.9034,-3.5586,-3.948,-3.4484,-3.6915,-3.7843,-3.6367,-3.7409,-3.7479,-3.5284,-3.4476,-4.2018,-4.289,-3.3573,-3.562,-3.1975,-3.4468,-3.7314,-3.7846,-3.6329,-3.8036,-3.6224,-3.5864,-3.5182,-3.6722,-3.5007,-3.5192,-3.3879,-3.4072,-3.3253,-3.2298,-3.2218,-3.2736,-3.1301,-3.1714,-3.0805,-3.1686,-3.1569,-3.0899,-2.9646,-2.8532,-2.4684,-2.5901,-2.4091,-2.3536,-2.2775,-2.3436,-2.2915,-2.1693,-2.0839,-2.0257,-2.0296,-1.8896,-1.9082,-1.6644,-1.6013,-1.5098,-1.3611,-1.2602,-1.0249,-0.95714,-1.0115,0.58295,2.4755,2.7304,3.6272,3.5044,3.4433,3.5546,3.3787,3.494,2.9563,3.221,3.2235,3.4089,3.8178,4.3079,4.6603,4.3652,3.6923,3.8088,3.702,3.5025,3.2704,3.047,3.0639,2.9344,2.737,2.5721,2.4566,2.431,2.4158,2.4335,2.3869,2.3464,2.3617,2.3129,2.3182,2.2747,2.272,2.1854,2.208,2.2376,2.2484,2.2789,2.2195,2.321,2.229,2.2238,2.2271,2.1673,2.2993,2.3284,2.1685,2.5359,2.2722,2.0602,1.8575,1.8474,1.8012,1.8554,1.9035,1.9551,1.9274,1.8065,1.6811,0.31963,-0.70031,-1.6216,-1.9726,-2.0688,-1.7832,-2.4026,-2.3583,-1.6609,-0.25688,1.4037,1.7272,0.060995,-1.3545,-1.9158,-2.7751,-2.7252,-2.8934,-2.8204,-2.788,-2.8547,-2.774,-2.3273,-1.8029,-2.0365,-1.8517,-1.6909,-1.8231,-1.5791,-1.1846,-1.0058,-0.40641,-0.14772,-0.60394,-1.0659,-1.1968,-1.1967,-1.3864,-1.2537,-1.0378,-1.466,-2.6592,-2.0328,-1.9572,-2.5422,-2.8366,-3.0973,-3.3798,-3.1895,0.084849,-0.74002,-0.39694,2.2872,2.4793,2.5869,3.1631,3.217,3.0785,2.6944,2.7431,2.9219,3.2107
2.423,2.6062,2.9511,2.3488,0.11935,-0.14114,-0.37544,-0.4796,-0.82066,3.0735,1.1915,1.2998,2.0857,2.6676,3.1643,2.1317,2.0957,1.4021,0.96709,2.0147,2.8671,3.0817,2.6579,3.2393,3.3048,2.4415,2.1757,2.3429,2.0608,0.68393,-0.16823,-0.070298,0.13576,1.4633,2.2318,1.8631,0.91952,0.69921,-0.12747,-0.0067196,0.31222,0.58364,2.4232,2.7976,3.1665,3.0281,3.5789,4.7788,2.5902,2.0186,2.0417,2.0209,2.0064,2.0722,2.1716,2.3082,2.1685,2.0467,2.0884,2.1404,2.161,2.161,2.189,2.1408,2.2578,2.258,2.2952,2.2953,2.1799,2.5487,3.5567,5.2879,4.7033,4.4122,4.831,5.1572,4.9404,4.7926,5.5537,5.8465,6.4458,5.5629,4.1956,3.5492,3.6409,3.6401,3.4066,3.0393,3.2599,3.1707,3.0916,3.2924,3.0585,2.9472,2.9949,3.3387,4.1559,3.8804,3.6122,3.2871,3.0141,3.0319,3.0126,3.25,3.2379,3.2256,3.0515,3.1175,3.5096,3.5088,3.4315,3.3091,3.4981,3.4385,3.5238,3.4455,3.4419,3.3496,3.1944,2.75,2.7613,2.3294,2.1823,2.0902,2.2037,2.5178,2.683,2.8141,3.3099,3.2164,2.1154,0.13412,-0.83144,-1.3436,-1.6136,-1.664,-1.5615,-1.6138,-1.6335,-0.9963,2.1358,1.9263,1.0946,2.2201,1.2391,-1.2393,-3.6059,-4.4081,-3.35,-3.1337,-3.0693,-3.0701,-3.1355,-3.2542,-3.3108,-3.3584,-3.5556,-3.4936,-3.4459,-3.5511,-3.6381,-3.595,-3.5142,-3.2922,-3.1206,-2.6126,-3.2451,-3.3083,-3.3859,-3.5115,-2.3607,-2.8391,-3.439,-2.81,-3.2229,-3.386,-3.6809,-3.8573,-3.645,-3.5728,-3.7137,-4.0346,-3.8729,-3.8203,-3.9011,-3.8914,-3.8098,-3.5482,-3.65,-3.6052,-3.6456,-3.703,-3.7219,-3.5863,-3.3366,-3.51,-3.3244,-3.3428,-3.4628,-3.5119,-3.1076,-3.2736,-3.1797,-3.2772,-3.3479,-3.253,-3.2003,-3.122,-3.0717,-2.9698,-2.9407,-2.9336,-2.9635,-2.8999,-2.6444,-2.6639,-2.6721,-2.5798,-2.4882,-2.3186,-2.2523,-2.032,-2.1376,-1.9351,-1.8885,-1.8494,-1.7254,-1.4556,-1.5408,-1.4195,-1.2111,-1.1914,-0.98368,-0.82951,-0.9217,0.37086,2.6545,3.1046,3.4003,3.519,3.799,3.7889,3.7993,3.6707,3.9,3.968,3.9771,3.63,3.8294,4.342,4.1025,4.2624,4.1362,4.1008,4.3494,3.6578,3.3798,3.308,3.2506,3.0878,2.8751,2.7763,2.637,2.5434,2.4311,2.4665,2.3891,2.3672,2.3342,2.317,2.291,2.3099,2.2955,2.2638,2.2777,2.3541,2.3147,2.2519,2.2366,2.2621,2.4457,2.6273,2.6843,2.5377,2.4013,2.6525,2.3307,2.3504,2.2519,2.0637,1.982,1.8073,1.9727,1.8847,1.9399,0.24298,-0.4497,-0.74841,-1.5046,-2.1406,-2.4125,-2.703,-2.7112,-2.7135,-2.4679,-2.6324,-2.7551,-2.6775,-1.9706,-1.0421,-1.5671,-1.1269,-1.6975,-2.2927,-2.6738,-2.7953,-2.8718,-2.8195,-2.828,-2.8036,-2.7984,-2.3773,-2.0579,-2.0618,-2.2221,-2.0649,-1.8053,-1.5196,-0.97764,-0.53532,-0.28415,0.019428,-0.39904,-0.8162,-1.0365,-1.4203,-1.6625,-1.5199,-1.9509,-1.962,-1.5704,-2.3856,-2.8811,-3.133,-3.2243,-3.302,-3.3296,-3.4154,-1.938,-0.28986,-0.60585,2.1409,2.6714,2.9463,2.8758,2.8018,2.9455,3.4169,2.9261,2.504,2.423
2.5106,2.2857,1.2878,0.19035,-0.58088,-0.38023,-0.53134,-0.89463,0.53105,2.4061,1.5125,0.24851,0.23904,1.6716,2.0445,2.7172,2.4152,2.267,1.3389,1.9283,2.5367,3.2302,2.8636,2.33,2.4,2.2704,2.2567,2.1339,1.8855,2.0186,2.3815,2.3022,3.1383,3.1564,3.3295,2.9912,2.8632,2.5254,2.0619,2.2403,1.8555,3.4784,3.8483,4.131,4.2024,3.1705,2.5722,2.2625,3.8939,2.7978,2.0296,2.0733,2.0381,2.0539,2.0816,2.2833,2.1475,2.2035,2.1488,2.2236,2.2206,2.2341,2.2487,2.3036,2.5038,2.2453,2.3898,2.3421,2.3724,2.2884,3.8049,3.4987,2.6077,3.3458,4.6868,4.9687,5.1893,5.7665,5.5318,4.3656,3.2382,3.3007,3.179,3.0526,3.0231,3.1433,2.979,2.8667,3.2719,3.3436,3.2798,2.9623,3.1896,3.3957,3.4798,3.7016,3.8435,4.037,3.5516,3.608,3.268,3.1289,3.263,3.3553,3.3398,3.3257,3.5725,3.3976,3.0998,3.2759,3.6328,3.8466,3.7123,3.6801,3.4677,3.4119,3.3842,2.7779,2.686,2.7132,2.4878,2.2004,2.015,2.2402,2.5852,2.5366,2.5265,3.2552,3.5345,3.2146,0.53579,-1.1897,-1.3773,-1.3268,-1.5882,-1.49,-1.3594,-1.1708,-1.6006,-0.9578,1.5695,2.125,1.3721,0.2673,-1.7611,-4.4235,-3.1113,-3.0198,-3.2497,-3.1765,-3.2337,-3.2106,-3.3063,-3.4082,-3.399,-3.5277,-3.4769,-3.4448,-3.4234,-3.5512,-3.5259,-3.6222,-3.3984,-3.3377,-2.787,-3.1115,-3.3213,-3.5442,-3.6843,-3.4717,-1.5644,-1.3982,-3.3905,-2.872,-3.0968,-3.5322,-3.5438,-3.5993,-3.6089,-3.4357,-3.5591,-3.6004,-3.8542,-3.7853,-3.9511,-3.8659,-3.8792,-3.7027,-3.5782,-3.5637,-3.5881,-3.5866,-3.6357,-3.376,-3.2111,-3.1471,-3.2945,-3.5015,-3.2893,-3.2254,-3.1489,-3.1746,-2.9882,-3.2273,-3.0539,-3.2304,-3.0346,-3.1062,-2.9302,-2.8609,-2.8707,-3.0116,-2.9686,-2.825,-2.7651,-2.6494,-2.6407,-2.5796,-2.4734,-2.5402,-2.4072,-2.315,-2.1849,-2.1007,-1.9569,-1.9134,-1.8081,-1.5463,-1.6112,-1.3062,-0.83195,-1.0191,-0.76092,-0.8091,-0.9431,-0.38903,2.4746,3.4936,3.0956,3.6336,3.9624,3.5286,3.5149,3.6757,3.9428,4,3.5461,3.4749,3.6126,4.6951,4.7904,4.3386,4.1342,4.68,4.8641,3.9978,3.7229,3.4361,3.1778,3.026,2.9661,2.7863,2.6424,2.5439,2.4744,2.4903,2.4635,2.3773,2.3658,2.3189,2.3253,2.3159,2.3327,2.3316,2.3412,2.3531,2.3081,2.4,2.4813,2.4562,2.4932,2.6252,2.5979,2.3612,2.5108,2.3692,2.2458,2.0965,2.1261,2.0423,2.0506,1.9556,2.0722,2.154,-0.11204,-1.4266,-1.9995,-2.0774,-2.4932,-2.626,-2.7806,-2.9096,-2.9341,-2.9744,-3.0045,-2.8432,-2.9376,-2.9516,-2.8869,-2.524,-1.5448,-1.3883,-1.296,-2.0019,-2.5705,-2.7158,-2.7776,-2.8431,-2.8865,-2.6162,-2.6628,-2.58,-2.4192,-2.3767,-2.3287,-2.0239,-1.658,-1.2113,-0.60463,-0.12316,-0.22763,0.22422,-0.47434,-0.44779,-1.1235,-1.3551,-1.6893,-1.8463,-1.7729,-1.2082,-2.1632,-3.0195,-3.1327,-3.1881,-2.5273,-2.9439,-3.3487,-3.2922,-2.6432,-1.7957,-1.4569,2.0246,2.4993,2.6421,2.9,2.9476,3.2984,3.2027,3.3656,3.0271,2.5106
2.4183,1.6245,0.52166,1.4974,2.0382,-0.49591,-0.59881,-0.87318,1.2848,2.7379,1.0916,-0.53075,-1.0963,-1.3362,0.54061,1.759,2.706,1.1615,2.1467,1.3793,2.7542,3.1729,2.8947,2.3223,1.6121,1.7292,2.0249,2.545,2.3296,2.8236,3.0267,3.1393,2.9691,3.2549,2.9185,3.3225,3.3081,3.6449,3.7784,3.8075,3.9593,4.2703,4.3123,4.1018,3.2895,3.9978,4.7537,2.7306,2.0434,2.2899,2.0604,2.1484,2.0685,2.1418,2.4135,2.3244,2.2763,2.1846,2.2335,2.2986,2.3002,2.3504,2.3373,2.3356,2.348,2.4943,2.6876,3.0178,2.8473,2.7854,3.5221,3.9953,4.7241,5.3164,5.4516,5.4008,4.4186,3.6305,3.6295,3.2681,3.1966,3.2854,3.2725,3.124,3.1469,3.1704,3.0895,2.9702,3.0557,3.0615,2.9593,3.0199,3.1748,3.1341,3.1469,3.6327,4.1382,4.1416,3.6925,3.2666,3.6109,3.4135,3.4158,3.612,3.6159,3.6378,3.1612,3.4427,3.3912,3.6185,3.3377,3.2796,3.7098,3.3757,3.3358,3.4274,2.5545,2.1343,2.2404,2.2903,2.1622,1.9887,2.2393,2.3356,2.1775,2.3813,2.4468,2.9693,2.2414,1.3455,0.056405,-0.81561,-0.90694,-0.8846,1.0751,0.86718,0.65995,0.034197,-0.50996,0.20691,2.251,2.6461,2.266,0.92278,-2.6968,-3.6776,-3.1097,-3.0034,-3.1952,-3.3068,-3.3241,-3.2776,-3.3176,-3.5254,-3.4865,-3.427,-3.3703,-3.4713,-3.2782,-3.3852,-3.3441,-3.3877,-3.3206,-2.944,-2.745,-3.3295,-3.0971,-3.313,-3.5709,-3.6559,-1.8709,-4.5163,-3.3903,-2.9798,-2.2058,-2.7,-3.3859,-3.4225,-3.5093,-3.3986,-3.1606,-3.6134,-3.3129,-3.6544,-3.9142,-3.9143,-3.7169,-3.5345,-3.5192,-3.4574,-3.3972,-3.4768,-3.5972,-3.5991,-3.4466,-3.427,-3.3442,-3.4832,-3.4218,-3.3558,-3.2148,-3.1904,-3.057,-3.2296,-3.1271,-2.9718,-2.7795,-3.0376,-3.0943,-3.1461,-3.1771,-3.1367,-2.839,-2.8849,-2.494,-2.8399,-2.8951,-2.6265,-2.6627,-2.5476,-2.4622,-2.4187,-2.5104,-2.4939,-1.9539,-1.631,-1.4735,-2.0608,-2.0614,-2.1171,-2.3053,-2.3234,-2.3234,-2.118,-1.596,0.46287,2.13,3.3898,2.3486,3.9005,3.6797,3.557,3.4811,4.041,4.0769,4.2034,3.8965,3.7007,3.9044,4.5806,3.6875,4.0673,4.4319,4.8145,5.2768,3.7643,3.7216,3.5151,3.2234,3.0372,2.8993,2.7781,2.683,2.5774,2.5431,2.4902,2.4245,2.4397,2.3745,2.3858,2.3187,2.3538,2.3763,2.4414,2.401,2.4618,2.4941,2.4328,2.4729,2.5378,2.519,2.8396,2.482,2.3417,2.2965,2.1812,2.1927,2.0641,2.1295,1.7007,1.6657,1.2472,0.1599,-0.76767,-1.6593,-2.3526,-2.5773,-2.7338,-2.8583,-2.9077,-2.9062,-2.9914,-3.0303,-3.0156,-3.0737,-3.03,-3.0394,-3.1018,-2.8636,-2.8707,-3.1382,-2.3701,-2.3014,-2.0423,-2.0596,-2.432,-2.5144,-2.63,-2.8414,-2.7552,-2.4943,-2.7025,-2.3411,-2.346,-2.1779,-2.124,-1.4914,-0.67339,0.07895,0.23697,0.5041,0.29731,-0.012877,0.40873,-0.79936,-1.1917,-1.4109,-1.8596,-2.2554,-2.0531,-2.603,-3.14,-2.2901,-2.8114,-2.6775,-2.9606,-2.9806,-3.1237,-2.8392,-2.8575,-0.39208,2.4349,2.5576,2.5142,2.6157,2.7499,2.7449,2.9434,3.3818,3.2974,2.4183
2.1443,1.5493,1.7421,1.0117,-0.070832,-0.39833,-0.59078,-0.72503,1.7071,2.2962,0.47487,-0.026086,-0.45377,-0.80173,-0.84058,-0.47722,2.0335,2.1688,-0.19437,1.0016,0.90118,2.669,3.0649,2.4335,1.8758,1.7721,1.9043,2.3288,2.6404,3.1951,3.4629,3.3837,3.1562,3.2335,3.205,3.3138,3.7282,3.985,3.6853,3.4648,3.5888,4.0737,3.8649,4.0163,4.5667,3.3628,3.8454,3.1855,3.099,2.1714,2.2475,2.1702,2.0935,2.1422,2.2602,2.3548,2.4306,2.1641,2.3128,2.3427,2.2821,2.3743,2.3405,2.4163,2.4296,2.4345,2.5775,3.7013,5.2568,5.1587,4.8426,5.0481,6.5331,6.8983,6.7608,5.7881,3.5492,3.3466,3.3609,3.3616,3.3976,3.3785,3.3706,3.3105,3.3359,3.299,3.2986,3.1274,3.0906,4.0724,5.0234,5.4785,5.3144,5.2512,5.6,5.7502,5.9911,6.2507,6.3029,5.8496,4.1345,3.9944,3.7357,3.5664,3.5242,3.4417,3.9038,3.3158,3.6056,3.5148,3.4682,3.2134,3.9535,3.4595,3.4381,2.4846,2.1012,2.1633,2.2078,2.1549,1.9768,2.1254,2.1929,2.1912,2.1518,2.162,2.3217,2.7253,2.2285,0.41165,0.36804,-0.89124,-0.96225,-0.15117,0.8885,0.37865,-0.4298,-0.16822,0.45721,1.7468,2.3592,2.4646,2.0096,0.56997,-3.7587,-3.1903,-3.1874,-3.1598,-3.3204,-3.4555,-3.2012,-3.323,-3.4937,-3.4876,-3.5052,-3.571,-3.5483,-3.5049,-3.5008,-3.1778,-3.3511,-3.2377,-2.645,-2.4727,-2.8389,-2.8519,-3.1269,-3.285,-3.1367,-3.4924,-4.0774,-3.0389,-4.0228,-3.4368,-3.1669,-2.7458,-2.6943,-3.1833,-3.2355,-3.3178,-3.3092,-3.1163,-3.2346,-3.0295,-3.8503,-3.7232,-3.5166,-3.3575,-3.3422,-3.1556,-3.2009,-3.2555,-3.4809,-3.5464,-3.4712,-3.1446,-3.1921,-3.0077,-3.3189,-3.0038,-3.1926,-3.0245,-3.1544,-3.1823,-3.4074,-3.2629,-3.2227,-3.0612,-3.3486,-3.333,-3.1785,-2.9342,-2.7904,-2.6177,-2.4674,-2.8494,-3.0676,-3.1123,-3.0798,-2.9113,-2.9206,-2.9445,-2.8617,-2.6727,-2.7089,-2.6238,-2.4562,-2.3756,-2.29,-1.93,-2.2795,-2.2067,-2.056,-2.0866,-1.7691,-1.3192,1.2676,2.7006,2.4333,2.7589,4.2202,3.6265,4.0501,4.4715,4.2711,4.3632,4.1048,3.6896,4.2626,4.1377,3.7722,3.9612,4.379,5.3805,5.3711,4.6849,4.0256,3.7061,3.4114,3.113,2.9773,2.804,2.6475,2.6091,2.569,2.5121,2.4758,2.4546,2.4516,2.42,2.3787,2.4012,2.3748,2.398,2.4189,2.4436,2.4675,2.4521,2.4863,2.5016,2.9068,2.8121,2.4603,2.2789,2.1438,2.2486,2.1389,1.9849,0.028559,-0.65186,-0.62599,-0.82762,-1.2952,-2.196,-2.3712,-2.5988,-2.2658,-2.9191,-2.9055,-2.3089,-2.9038,-2.9658,-3.0245,-3.0501,-3.0845,-3.0882,-3.1205,-3.0941,-3.1247,-3.0802,-3.1888,-3.1293,-3.1619,-3.0261,-2.3751,-2.6121,-2.7341,-2.6937,-2.8393,-2.6932,-2.6097,-2.6067,-2.3046,-2.3061,-1.812,-1.5741,-1.0931,0.057574,0.43943,0.55213,0.82151,0.34902,0.99973,0.92681,-0.45632,-1.0677,-1.4906,-1.7817,-2.1496,-2.6986,-2.4054,-2.9339,-2.8357,-2.9921,-3.2418,-2.316,-2.0983,-1.6789,-2.008,-1.1727,2.0173,2.3458,2.4226,2.5071,2.468,2.7005,3.0103,2.993,3.0255,3.0203,2.1443
1.6413,0.071185,-0.14549,-0.53391,-0.47727,-0.49567,-0.52248,-0.48423,-0.70504,0.92562,1.7469,1.8669,1.6955,2.4353,2.1762,2.7059,1.9204,0.19598,-0.34328,-1.099,-0.47652,2.4815,2.8786,2.3813,2.4752,1.7599,1.6822,2.1858,2.8122,2.853,3.4038,3.6484,3.586,3.3642,3.2451,4.0096,3.8072,3.7576,3.7343,3.289,3.0736,2.8846,3.4545,4.6286,4.848,3.6703,3.9404,4.1886,4.4278,2.5449,2.3483,2.1984,2.1124,2.1986,2.309,2.3906,2.5557,3.5523,3.1296,2.3415,2.4275,2.4231,2.4516,2.4421,2.4925,2.5084,2.8462,3.5271,2.8342,3.0408,3.7067,5.6292,6.1882,6.7207,6.5729,6.4356,5.6921,3.7606,3.5882,3.4896,3.5275,3.5081,3.5357,3.4644,3.4802,3.6078,3.7424,5.4541,6.3737,6.3771,5.8217,5.3997,4.9478,4.9885,5.0427,5.8328,6.8068,6.7546,6.6801,6.3679,6.1878,5.7548,4.8632,3.5908,3.7413,3.6774,3.4866,3.7165,3.4797,3.4628,3.3451,3.3541,3.7694,3.3587,2.7431,2.3102,2.2195,2.1968,2.2309,2.2791,2.144,2.1927,2.1343,2.261,2.2459,2.2393,2.2634,2.4181,2.906,1.4748,0.57793,0.77534,0.18222,-0.025046,1.4275,-0.76536,-0.17696,1.9876,0.94467,2.3592,2.943,2.193,1.7185,0.43917,-4.3173,-3.0856,-2.9147,-3.262,-3.5138,-3.5265,-3.5473,-3.6005,-3.6158,-3.5618,-3.5919,-3.578,-3.5846,-3.4819,-3.4024,-3.1766,-3.0654,-2.4363,-1.7323,-1.4709,-2.6716,-2.8943,-3.202,-2.8907,-2.9969,-3.3248,-1.7086,-0.43067,-4.0527,-3.3942,-3.1057,-2.2738,-1.6179,-2.453,-2.922,-3.1012,-3.2579,-3.3415,-3.0092,-3.2092,-3.0783,-3.1617,-3.0743,-2.8893,-2.8469,-2.7298,-2.5218,-3.277,-3.6695,-3.4655,-3.349,-3.0903,-2.7744,-2.8233,-3.1323,-3.2087,-3.0325,-3.1547,-3.0996,-2.9997,-3.2544,-3.3545,-3.16,-3.0513,-2.8948,-3.1936,-3.1224,-2.9889,-3.05,-2.7229,-2.7219,-2.9586,-3.1317,-3.1337,-3.148,-3.1786,-3.0711,-3.1904,-3.0645,-2.7212,-2.8686,-2.7506,-2.7219,-2.7517,-2.6122,-2.6483,-2.4537,-2.5084,-2.371,-2.2612,-2.0452,-1.6161,-1.1857,2.3207,2.2361,2.249,3.9546,4.7842,4.1106,3.8881,4.1077,3.9177,4.211,4.139,4.9102,4.0563,4.1146,4.2598,5.1797,5.5789,4.8786,4.4762,3.6404,3.466,3.3524,3.197,3.0112,2.8817,2.7668,2.7066,2.6064,2.5683,2.5085,2.5776,2.5521,2.5216,2.4525,2.4271,2.3888,2.3786,2.4809,2.4829,2.5472,2.5299,2.6265,2.9981,3.0681,2.7101,2.3562,2.2924,2.2515,2.2228,1.8106,-0.37983,-0.65429,-1.2227,-1.5818,-1.668,-2.186,-2.5332,-2.6106,-2.6229,-2.8578,-2.465,-2.2302,-2.2674,-2.7613,-2.9283,-2.8889,-2.9672,-3.0226,-3.116,-3.0884,-3.1531,-3.0959,-3.0748,-3.1229,-3.1037,-3.0977,-2.9636,-3.0807,-2.955,-2.8903,-2.3668,-2.4634,-2.3516,-2.1316,-1.8172,-1.5361,-1.5201,-1.4335,-1.215,-0.70577,0.21092,0.59548,0.47722,0.52901,1.482,0.3154,0.38361,0.67659,0.029168,-1.2261,-1.7377,-2.0881,-2.298,-2.5608,-2.6656,-2.4413,-3.2238,-2.7304,-2.9359,-2.0195,-2.322,-2.7723,-2.7429,-0.92704,2.0684,2.4029,2.5514,2.7867,2.7695,2.6547,3.1044,3.2944,2.5913,1.6413
-0.57543,-0.51686,-0.29668,0.3854,1.0312,0.62101,1.127,1.7149,1.8728,2.5752,2.3215,2.2871,1.9427,1.8451,1.9555,2.4886,-0.8109,-1.056,-1.0781,-1.2292,-1.1047,-0.16914,2.758,2.2666,1.6912,2.201,1.9031,2.2074,2.6054,3.1563,3.8081,2.5836,4.0097,3.3821,4.2536,2.4437,2.3783,3.157,2.8546,2.8689,2.7061,2.7719,2.7547,3.1124,3.3629,4.2329,3.5773,4.4155,3.6973,3.5322,3.1071,2.1242,2.1603,2.3254,2.2496,2.9243,3.7185,3.591,3.8883,4.0187,3.0954,2.48,2.5853,2.7112,2.7502,2.6342,2.5373,2.6155,2.5726,2.7361,3.6648,5.0854,6.6507,6.8308,7.0365,7.0264,6.7357,5.8938,5.6014,4.3893,3.9666,3.7477,3.6736,3.7436,4.877,6.3857,7.3498,6.7578,6.9004,6.7213,6.4091,6.8044,6.0262,5.2339,4.9377,5.0465,5.2029,5.1926,5.6727,5.7723,5.5194,5.7382,5.2976,5.2743,4.3245,4.1268,3.8041,3.9872,3.9183,3.6378,3.2643,3.5507,3.3676,3.586,3.078,2.2704,2.2841,2.2775,2.2872,2.3187,2.3569,2.4123,2.3143,2.2728,2.2413,2.2773,2.2643,2.3242,2.5787,2.9538,0.93615,0.1088,0.70032,2.0423,0.58456,1.0855,1.6248,2.007,2.7425,3.3268,2.8641,2.4462,1.0863,-3.407,-4.0453,-2.9172,-3.2542,-3.3104,-3.3524,-3.6436,-3.5374,-3.6098,-3.5966,-3.4924,-3.4361,-3.4599,-3.4121,-3.2624,-1.9309,-1.92,-2.5368,-2.5865,-2.2622,-1.8085,-2.6319,-2.6917,-2.3234,-2.7941,-2.7567,-2.6526,-3.0142,-2.4933,-3.1859,-3.1754,-3.0009,-2.4858,-1.4014,-1.4837,-2.1695,-2.8124,-3.0291,-3.0448,-3.0279,-2.8666,-2.8679,-2.7024,-2.7535,-2.7838,-2.7223,-3.1487,-3.2593,-3.6523,-3.2405,-3.2911,-3.3703,-3.0404,-3.3599,-3.5049,-3.4589,-3.4581,-3.388,-3.2659,-3.4094,-3.2987,-3.306,-3.3955,-3.4132,-3.4,-3.2322,-3.203,-3.0489,-3.1181,-3.166,-2.9885,-2.9928,-2.8979,-3.0579,-3.1421,-3.0594,-3.015,-3.1978,-3.0189,-3.0632,-3.0458,-2.9134,-2.7754,-2.6493,-2.7926,-2.5776,-2.6236,-2.619,-2.5149,-2.5018,-2.2682,-2.0734,-1.9182,-1.5756,0.44627,2.4178,2.5413,2.2796,4.4918,4.0776,3.6411,3.6784,3.4949,3.3147,3.8783,4.0191,3.7976,3.8002,3.8258,4.3139,4.7224,4.8923,5.013,4.2633,3.7653,3.403,3.204,2.968,2.8312,2.694,2.6765,2.574,2.5758,2.7178,2.7141,2.6847,2.5348,2.4506,2.4172,2.4768,2.4706,2.5575,2.5382,2.67,2.9783,2.9661,3.1369,2.8438,2.4999,2.4243,2.2909,2.2367,2.3171,-0.039047,-0.69003,-1.2556,-1.9348,-2.0046,-2.2704,-2.5492,-2.7196,-2.7045,-2.6451,-2.68,-2.6061,-2.6466,-2.8088,-2.3767,-2.6929,-2.7594,-2.974,-2.9374,-3.0897,-3.0358,-3.1558,-3.1847,-3.0358,-3.0049,-3.004,-2.9721,-2.9783,-2.7566,-2.8529,-2.4204,-2.4078,-2.2092,-1.7115,-1.5807,-1.3747,-1.1763,-1.2463,-0.79263,-0.48796,0.27457,0.4538,0.61673,0.018238,-0.66676,-0.70141,-0.42642,-0.30183,-0.37525,0.36984,-1.4043,-1.6483,-1.6116,-1.8105,-2.0177,-2.4741,-2.8301,-2.3079,-2.1583,-0.4203,0.31839,-2.1951,-3.1821,-0.79903,-0.98653,2.1468,2.1902,2.1757,2.3478,2.9724,3.0957,3.5239,2.4154,-0.34031,-0.57543
1.8488,2.8979,3.1639,3.1836,3.0092,3.3597,3.2189,3.1025,3.0271,3.0443,2.6154,2.3608,2.1129,1.4267,1.7432,2.31,-1.1575,-1.2275,-1.7667,-1.1968,-0.83314,-0.97902,-1.3866,1.3674,1.2366,0.98824,1.297,1.0429,1.2367,-1.171,0.65511,-0.1332,0.091497,2.1583,1.6297,1.5652,2.4451,2.6846,2.7298,2.6339,2.7162,2.7159,2.6547,2.5241,2.8063,3.1941,4.1284,4.3296,3.9087,4.3775,3.419,4.6994,5.1872,4.2141,4.1758,3.4474,3.5064,3.4081,3.6056,3.7829,3.4519,3.0859,2.9427,2.8889,3.0426,3.3646,3.9054,3.8372,4.3769,3.5447,6.2085,6.7949,5.9663,6.7008,5.7322,6.6518,7.427,7.6981,7.2572,7.5309,7.0543,6.3743,7.2069,7.6157,7.5104,7.3154,7.4835,7.3608,7.3665,7.3125,7.4011,7.4949,7.1157,7.155,6.7642,6.4415,6.5469,6.2074,5.8297,6.8019,5.6709,5.4008,5.2338,4.3879,4.4599,4.1648,4.3253,3.8871,3.7642,3.5067,3.54,3.2662,3.2163,3.5137,2.7844,2.4508,2.3435,2.4458,2.6901,2.5257,2.3853,2.3273,2.2921,2.2343,2.2744,2.2839,2.3074,2.3801,2.6766,2.6592,1.2199,1.0444,1.3966,2.3296,1.8404,2.0105,2.4328,3.3466,3.5613,2.9678,2.2569,1.8207,-0.67826,-4.1511,-2.9333,-3.56,-3.3705,-3.3665,-3.4033,-3.5516,-3.6628,-3.6592,-3.4934,-3.3825,-3.5362,-3.1423,-3.1534,-2.8466,-1.2123,-1.2654,-2.3508,-2.4605,-2.309,-2.7106,-3.2236,-3.2955,-3.3204,-3.2919,-3.1529,-2.8166,-2.9077,-2.0582,-2.0808,-2.7077,-2.6638,-2.6094,-2.4406,-1.6894,-1.5908,-2.0787,-2.3398,-2.6048,-2.187,-2.3284,-2.2866,-2.2008,-2.839,-3.0383,-3.1107,-3.1029,-3.4806,-3.7148,-3.7344,-3.4391,-3.2787,-3.256,-3.3349,-3.4649,-3.6777,-3.473,-3.4757,-3.3324,-3.3241,-3.2485,-3.3327,-3.3025,-3.4446,-3.4018,-3.2105,-3.1579,-3.0398,-3.0661,-3.127,-3.0348,-2.8847,-2.9271,-3.0653,-3.0949,-3.0191,-2.9967,-2.9029,-2.8622,-2.8819,-2.8207,-2.7919,-2.763,-2.9331,-2.7112,-2.5931,-2.5601,-2.5314,-2.3953,-2.3685,-2.3929,-2.3214,-2.0915,-1.4961,-1.0802,1.3382,2.8458,2.7102,2.8418,4.1796,3.2738,3.3344,3.0909,3.3801,4.0199,4.2245,3.887,4.1929,4.5906,4.2295,4.677,4.6845,4.6564,4.0768,3.6882,3.4381,3.2445,3.1221,2.9601,2.7141,2.6446,2.5985,2.6425,2.8561,2.8049,2.6055,2.4248,2.4418,2.5004,2.5157,2.5705,2.5756,2.8837,2.6444,2.9042,3.287,2.6633,2.6015,2.5499,2.4895,2.3178,2.2249,2.1687,-0.47046,-1.4256,-1.6422,-1.9592,-2.1712,-2.3078,-2.4571,-2.7123,-2.5087,-2.6753,-2.667,-2.7462,-2.5844,-2.3752,-2.5312,-2.6228,-2.6185,-2.9597,-3.0186,-2.8731,-3.1319,-3.151,-1.5388,-2.3188,-2.4946,-2.972,-2.8731,-2.6073,-2.5471,-2.4839,-2.5083,-1.8561,-1.6972,-1.7659,-1.5317,-1.3526,-1.0492,-0.74689,-0.31123,0.026795,0.55355,0.15144,-0.38815,-0.55075,-0.96996,-1.0056,-0.93746,-1.16,-1.586,-1.6452,-1.7952,-2.0395,-2.4095,-2.5682,-3.0591,-3.0772,-2.8959,-2.0637,-1.4209,-0.26325,-2.4299,-2.154,-1.877,-2.78,-2.285,-1.3597,0.86215,1.4757,2.2872,1.5975,1.1396,1.2657,0.61463,0.22182,1.8488
3.0449,3.5455,3.4324,3.2376,3.3984,2.7732,3.1344,3.263,3.5156,3.0667,2.5914,2.4534,2.3502,2.2972,1.9242,1.8671,1.8465,-0.29832,-0.90601,-1.4171,-0.47059,-0.40857,-0.70808,-1.0616,1.6412,2.1403,2.0408,0.75081,0.11118,-0.31279,0.068399,-0.075609,0.77979,3.3974,1.7991,0.97056,2.4499,2.7802,3.2018,2.9602,2.7075,2.5714,2.683,2.5231,2.5202,2.9532,3.3971,4.2313,4.3898,4.1031,4.2026,3.3169,3.171,3.073,3.3424,3.1128,3.0078,3.3909,3.2262,3.3507,3.9676,3.1963,3.4312,3.5923,4.2299,4.847,5.4458,5.9726,5.4166,5.1177,4.9232,4.8523,4.1501,4.7582,6.287,6.758,6.1675,7.2176,7.7407,7.7101,7.3494,7.76,7.6601,7.6187,7.4886,7.399,7.4137,7.339,7.3956,7.3666,7.3081,7.3798,7.2615,7.1017,6.9515,7.0022,6.9554,6.7434,6.7834,6.8513,6.1955,6.21,6.1197,5.6181,4.8845,4.2398,4.1639,3.7895,3.6851,3.3852,2.8036,2.8739,3.0238,2.5468,2.4129,2.4329,2.4202,2.4773,2.4713,2.4469,2.2842,2.3283,2.3471,2.3242,2.3051,2.3019,2.3667,2.5276,2.5115,2.3458,2.3083,2.2372,2.3161,2.9891,2.8389,2.7672,2.6557,2.261,2.9189,2.2683,1.7386,0.7545,-4.4885,-3.1838,-3.6354,-3.5288,-3.5146,-3.373,-3.5572,-3.6637,-3.6444,-3.6438,-3.7391,-3.5616,-3.4014,-3.2394,-3.0376,-2.7298,-2.5789,-2.2487,-2.1432,-1.7454,-2.5766,-3.2674,-3.5356,-3.5825,-3.4663,-3.3355,-3.221,-3.0011,-3.0491,-1.6893,1.2627,-2.5976,-1.7862,-2.033,-2.3506,-1.3025,-1.2892,-1.5887,-1.3856,-1.6232,-1.4146,-0.62184,-0.83561,-3.0531,-3.2046,-3.2303,-3.5053,-3.3733,-3.5737,-3.4577,-3.5585,-3.4282,-3.3477,-3.3406,-3.2399,-3.386,-3.4046,-3.3879,-3.3302,-3.4009,-3.4175,-3.4026,-3.2581,-3.3249,-3.2948,-3.2732,-3.2769,-3.1603,-3.2304,-3.0669,-2.9732,-3.0615,-2.9962,-2.8138,-2.8645,-2.8895,-2.9338,-2.9423,-2.8856,-2.7489,-2.6334,-2.502,-2.5861,-2.875,-2.8363,-2.6296,-2.6807,-2.6866,-2.4213,-2.4278,-2.3833,-2.3758,-2.2963,-2.0734,-1.8307,-1.5592,-0.53581,2.3007,3.1524,3.1676,3.3645,3.3605,3.0037,3.2332,3.4302,4.0769,4.1693,4.1096,4.0635,4.359,4.7414,4.068,4.4533,4.0146,3.8096,3.677,3.5429,3.3027,3.0122,2.8704,2.8182,2.7303,2.6402,2.6462,2.665,2.5504,2.4686,2.4701,2.5154,2.5958,2.5505,2.6471,2.7981,2.6928,3.1788,3.1104,2.6014,2.7095,2.5389,2.4802,2.4078,2.433,2.514,0.64399,-1.0545,-1.8691,-1.9181,-2.1363,-2.596,-2.7153,-2.8784,-2.734,-2.6241,-2.5202,-2.6168,-2.4568,-2.3121,-2.1709,-2.194,-2.421,-2.515,-2.1324,-3.2226,-3.1155,-3.1824,-3.0967,-2.8856,-2.1569,-1.4296,-1.6546,-1.6527,-2.3791,-1.6937,-2.0038,-1.754,-1.8287,-1.5226,-1.2807,-1.2908,-0.96966,-0.63482,0.015518,0.039208,-0.1779,-0.32279,-0.51852,-0.547,-0.72769,-1.1044,-1.1027,-0.2072,-1.5867,-1.971,-2.1853,-2.4079,-2.6062,-2.5224,-2.7375,-2.699,-2.6592,-2.0036,-0.50402,-0.21597,-0.62241,-1.4691,-0.60473,-0.36804,-1.7807,-1.9092,-1.0876,0.079956,1.6168,2.4746,3.2424,3.3349,2.5924,2.5501,3.1059,3.0449
3.4452,3.5857,3.8279,3.2854,3.0355,2.7165,2.4892,2.4413,2.4661,2.6314,2.4184,2.4518,2.4376,2.1983,2.0868,2.0366,1.1696,0.45452,-0.44032,-1.306,-0.62748,0.0027591,0.32457,0.3001,0.63825,-0.21218,-0.54047,0.015501,-0.23356,-0.45115,-0.38752,-0.10569,-0.33124,0.30694,0.40457,0.4001,3.984,3.4419,3.1354,3.0848,2.9939,2.8398,2.6646,2.5213,2.4622,2.5158,3.5234,3.8314,4.2962,4.4717,4.4236,4.3427,3.3976,3.3534,3.2091,3.441,3.1571,3.4947,3.6861,4.0499,3.2361,3.2728,3.5946,4.6557,4.9907,5.2015,5.2684,5.3005,5.6206,4.9269,4.9338,3.7959,2.726,3.2481,4.4713,4.8766,7.1218,6.8623,7.1643,7.5268,7.7215,7.7357,7.6015,7.6357,7.5664,7.4752,7.5092,7.4756,7.5997,7.7195,7.682,7.4808,7.1564,7.0783,7.0916,7.3476,6.9571,7.0482,7.1568,6.7101,6.7671,6.5263,6.1028,5.8833,5.2676,4.517,3.8969,4.1662,3.8836,3.4346,3.7824,3.4977,3.2885,2.7035,2.4876,2.474,2.4426,2.4552,2.4998,2.4315,2.4084,2.3787,2.4193,2.3828,2.3764,2.3567,2.3373,2.3721,2.3931,2.3397,2.4006,2.3693,2.5414,2.5658,3.1837,2.4412,2.9028,1.1747,0.093005,1.3829,1.4465,-1.677,-6.0411,-2.6897,-2.1832,-3.527,-3.0659,-3.4774,-3.1936,-3.7052,-3.5985,-3.4875,-3.5984,-3.5757,-3.4021,-3.4104,-3.2698,-2.7957,-1.8447,-0.82465,-1.0162,-1.911,-3.0431,-3.5593,-3.6245,-3.7077,-3.561,-3.5414,-3.3401,-3.0361,-3.2374,-3.086,-1.7262,-2.5678,-1.1636,-0.83227,-1.3656,-1.1738,-0.62413,0.14655,-1.3732,-2.3154,-0.94465,-2.2593,-1.4416,-3.0501,-3.3454,-3.1935,-3.1942,-3.3041,-3.4062,-3.3037,-3.229,-2.5265,-2.9635,-3.188,-3.1779,-3.2052,-3.2528,-3.3565,-3.3273,-3.4386,-3.3795,-3.355,-3.3295,-3.2188,-3.1992,-3.2095,-3.0831,-3.1312,-3.1589,-3.1695,-3.1171,-3.0462,-2.9233,-2.8471,-2.9308,-2.8725,-2.7739,-2.8278,-2.6411,-2.6751,-2.6144,-2.6664,-2.5811,-2.5892,-2.676,-2.6022,-2.6232,-2.6037,-2.3748,-2.3386,-2.2667,-2.1615,-2.2201,-2.2064,-1.8642,-1.7981,-1.4062,0.37982,1.9766,2.093,2.9177,3.5484,3.2023,2.8197,2.8506,3.254,3.3241,4.0205,4.5521,4.8288,4.8623,4.2115,4.3452,4.0265,3.6889,3.6727,3.5223,3.3013,2.9715,2.791,2.7222,2.7069,2.6411,2.6175,2.6065,2.5251,2.5049,2.5207,2.5165,2.5711,2.6341,2.6548,2.6917,2.7383,2.7196,2.6788,2.6141,2.5792,2.4884,2.5476,2.4511,2.3426,1.7034,-1.1316,-1.7954,-2.0896,-2.45,-2.8088,-2.9246,-2.9301,-2.7583,-2.7087,-2.7861,-2.5001,-2.3328,-2.1918,-2.1525,-2.2364,-2.2466,-2.6173,-2.1471,-2.739,-3.1411,-3.076,-2.9785,-3.0262,-2.6815,-2.8898,-2.3583,-2.4389,-2.3166,-2.5139,-2.2559,-1.9949,-1.782,-1.4904,-1.4204,-1.1732,-0.98516,-0.59791,-0.13982,0.06398,-0.53507,-0.61127,-0.6565,-0.84131,-1.0861,-0.37646,0.11374,-0.99,-1.1471,-1.7235,-2.4973,-2.8677,-2.7047,-2.8239,-2.8774,-2.7705,-2.6425,-2.2733,-1.744,-1.7013,-1.5831,-1.7117,-1.6096,-1.858,-1.8711,-2.0469,-2.1112,-0.68046,1.8652,2.4478,2.6895,2.8354,3.471,3.3446,3.4124,3.6557,3.4452
3.6513,3.4496,3.3465,3.2771,2.9849,2.7408,2.6218,2.6166,2.5411,2.6027,2.9245,2.5626,2.5355,2.3959,2.2259,1.826,1.186,0.49746,0.31193,0.39701,0.83221,0.64503,1.5985,1.5306,0.1355,0.25305,0.081562,-0.26968,-0.68408,-0.37235,0.037365,0.28193,0.80508,0.92438,0.77985,2.1274,3.108,3.309,3.0759,3.252,3.2962,3.0078,2.8411,2.5868,2.5274,2.5448,2.4745,3.4167,3.5229,4.1247,5.2121,4.575,4.3946,4.1534,3.4803,3.4877,3.6693,3.3674,3.6071,4.0643,4.408,3.2212,3.4674,3.6773,4.7977,4.4543,4.3662,5.4553,4.6378,4.9848,3.7426,2.852,2.9662,2.9683,2.6803,3.8061,5.2096,7.3688,7.6282,7.3105,7.4536,7.4705,7.129,7.2549,7.2474,7.6071,7.6095,7.4305,7.5106,7.443,7.5292,7.6458,7.7005,7.4539,7.3317,7.1935,7.1338,6.8643,6.8823,7.0072,6.8741,6.599,6.214,6.135,5.8477,4.3149,3.5557,3.3633,3.2266,3.2116,3.3183,2.9104,2.6712,2.6015,2.5247,2.5497,2.5178,2.4929,2.5092,2.4378,2.5096,2.4449,2.4437,2.4701,2.4344,2.3919,2.3668,2.4069,2.2915,2.4758,2.5434,2.9935,2.4269,2.6668,1.7594,0.65535,-0.58807,-1.2265,-1.6596,0.78618,2.122,0.15161,-5.6547,-2.5796,-2.9919,-3.2494,-3.4801,-3.3665,-3.107,-3.4322,-3.4385,-3.3726,-3.3333,-3.3042,-3.0999,-2.708,-2.7357,-2.1526,-0.68956,-0.45198,-1.9379,-2.8121,-3.4485,-3.7514,-3.7555,-3.7478,-3.6406,-3.5039,-3.4154,-3.2546,-3.2447,-3.3022,-1.2586,-2.8599,-2.6298,-1.981,-1.9958,-2.4401,-2.01,-2.0959,-2.3368,-2.5894,-3.016,-2.8693,-1.9094,-1.8519,-3.0288,-2.9977,-3.0036,-3.1267,-3.2328,-3.2394,-3.1466,-3.3103,-3.1586,-2.5769,-2.5121,-2.8287,-3.2471,-3.3271,-3.2715,-3.251,-3.3632,-3.3603,-3.1942,-3.1918,-3.0114,-2.9849,-2.9766,-2.9412,-3.0411,-3.0539,-3.0776,-3.1836,-3.0472,-2.9517,-2.9258,-2.9056,-2.6962,-2.5696,-2.5372,-2.4448,-2.4809,-2.3386,-2.4397,-2.2878,-2.0851,-2.0193,-2.0435,-1.8232,-1.9674,-1.9603,-2.0188,-1.98,-1.8914,-1.9842,-1.9028,-1.6162,-1.5525,-1.0628,1.7688,1.3197,1.6766,3.159,2.6276,2.6589,2.8459,2.6716,2.9145,3.4195,3.7238,3.9689,4.6377,4.0327,4.194,4.0911,3.6593,3.6259,3.4619,3.1995,3.0036,2.8777,2.8434,2.6952,2.6466,2.6397,2.5907,2.5898,2.5082,2.5261,2.6089,2.6553,2.5659,2.6503,2.7406,2.6803,2.7089,2.6348,2.6169,2.5357,2.5567,2.4758,2.4424,2.1361,0.087024,-1.5268,-2.2906,-2.7028,-2.8394,-2.8445,-2.8506,-2.7745,-2.7496,-2.598,-2.2136,-2.2058,-1.9856,-2.2423,-2.2558,-2.1139,-2.3839,-2.408,-2.3533,-2.8898,-3.1249,-2.7974,-2.9397,-3.131,-2.5967,-2.6624,-2.589,-2.6555,-2.4056,-2.2285,-2.1402,-1.643,-1.3617,-1.2769,-0.988,-0.84994,-0.052239,0.11359,-0.58694,-0.7081,-0.89347,-0.93827,-0.98611,-1.0138,-1.094,-0.92364,-0.15563,-0.30992,-1.1941,-1.9932,-2.2377,-2.5271,-2.9171,-2.8041,-2.7452,-2.7144,-2.1158,-1.2692,-0.681,0.75833,-1.0065,-1.6754,-2.0166,-1.3092,-1.3735,-1.4868,-1.1179,2.673,2.5881,3.2802,3.3141,4.2615,3.5769,3.9526,3.7964,3.7984,3.6513
3.2926,3.201,3.1565,3.1441,2.8654,2.7674,2.7008,2.6396,2.711,2.7857,2.9116,2.8822,2.9292,3.1697,2.7897,2.6155,2.3993,1.3769,0.92444,1.4183,2.4925,2.7916,2.5681,2.5772,2.7286,2.1378,0.60237,-0.63948,-0.50176,0.31619,1.6745,2.3329,2.1245,1.8158,1.4487,2.8948,3.1451,3.124,3.2949,3.4399,3.3344,3.1307,2.8908,2.7758,2.5901,2.5594,2.5678,2.4983,2.5617,2.6045,4.257,4.8471,4.418,4.1906,4.2289,3.8767,4.0214,3.3944,3.2548,3.8974,4.243,3.2487,3.0777,3.196,3.505,3.6407,4.0277,4.3028,4.8255,4.2636,3.2773,2.7087,2.6248,2.6341,2.7953,2.8304,2.9423,4.9914,7.3666,7.0907,7.5809,7.3984,7.436,7.725,7.4132,7.3286,7.3694,7.2564,7.2829,7.1167,7.165,7.2358,7.3594,7.2008,7.2539,7.5878,7.0754,6.7473,6.7862,7.0099,6.6764,6.6434,6.2535,6.1937,4.9929,3.4249,3.1447,3.1616,3.4218,4.3365,3.5629,3.3777,2.6106,2.7107,2.7355,2.5688,2.5516,2.5974,2.5418,2.5162,2.5139,2.5108,2.5598,2.507,2.4287,2.4782,2.4406,2.4442,2.3338,1.8663,2.5105,2.9757,1.3494,0.81321,-1.1789,-2.1792,-1.5263,-1.6218,-1.4918,0.78696,1.2169,-0.57433,-5.6409,-3.2375,-3.1378,-3.2757,-3.6722,-3.4538,-2.894,-2.4769,-3.3841,-3.0495,-3.5655,-3.1388,-2.5924,-2.041,-1.8765,-0.99012,-0.29543,-0.70986,-2.3817,-3.0786,-3.3822,-3.4752,-3.5897,-3.5777,-3.6511,-3.4326,-3.3532,-3.3129,-3.1021,-3.2073,-2.5423,-0.32353,-3.0442,-2.6825,-2.9036,-2.7923,-2.6627,-2.5192,-2.6127,-2.7949,-2.6146,-2.6259,-2.699,-2.5705,-2.3947,-3.0008,-2.923,-2.9513,-3.179,-3.1887,-3.1465,-3.2244,-3.232,-2.8217,-2.6839,-1.3456,-2.1248,-2.838,-2.7086,-2.9901,-3.2084,-3.2515,-3.2377,-3.0747,-2.8991,-2.8074,-2.7748,-2.7876,-2.7794,-3.0115,-3.0318,-3.0939,-3.0853,-2.9256,-2.7699,-2.7108,-2.8118,-2.723,-2.4665,-2.196,-2.0248,-2.0395,-1.9103,-2.2593,-2.1935,-2.291,-1.9667,-2.0956,-1.988,-1.8902,-1.6518,-1.5541,-1.7045,-1.6593,-1.649,-1.7411,-1.5549,-1.2692,-0.72999,1.3479,0.90602,2.0467,3.7506,2.4363,2.7595,3.0123,3.2543,3.5626,3.927,4.0061,3.8912,3.8355,3.9025,3.9303,3.5017,3.5462,3.3968,3.2796,3.1607,3.0209,2.8964,2.7497,2.6595,2.7059,2.641,2.5808,2.5718,2.6085,2.7013,2.6535,2.6171,2.6037,2.6885,2.6402,2.6611,2.58,2.6563,2.5619,2.5956,2.2458,1.9566,1.1441,-0.12335,-1.3814,-2.4832,-2.7584,-2.8341,-2.8128,-2.8335,-2.7279,-2.673,-2.4916,-2.4158,-0.18994,-2.1878,-2.0082,-2.1482,-2.2326,-2.527,-2.3569,-3.0129,-3.0311,-2.9886,-3.0284,-3.0566,-2.9753,-2.848,-2.8993,-2.8292,-2.505,-2.3706,-2.2288,-1.8965,-1.4649,-1.3686,-0.99796,-0.93988,-0.20343,0.093781,-0.73284,-0.78124,-0.93842,-1.0525,-1.1235,-1.5138,-1.6453,-1.4963,-1.3282,-1.4004,-1.2143,1.2583,-2.1638,-2.6088,-2.8032,-2.8261,-2.7864,-2.6304,-2.382,-1.8171,-1.8082,-2.1246,-1.785,-1.9962,-1.9739,-1.7617,-0.82111,-0.74679,-0.50018,1.8123,2.7549,2.9512,3.2075,4.849,4.2874,3.8075,3.3121,3.6605,3.4437,3.2926
3.169,3.1231,3.1362,3.0868,2.8613,2.7504,2.7597,2.7644,2.7744,2.862,2.9733,3.1183,3.1488,3.1409,2.8071,2.7223,2.6592,2.718,2.5821,1.8344,2.5485,2.5719,2.6043,2.6572,2.7571,2.8156,2.7097,2.9547,2.6885,2.3063,2.6672,2.5889,2.5758,2.6082,2.636,2.8424,3.4861,3.2895,3.1596,3.3803,3.4379,3.1622,2.8947,2.9063,2.8742,2.6396,2.5679,2.588,2.5269,2.5463,3.3269,4.7059,5.0795,4.5179,4.2233,4.3521,4.1364,4.3024,2.8169,3.3502,3.7533,3.1365,3.0102,3.2714,3.2696,3.7612,3.8319,4.6191,4.7422,4.2648,3.9098,2.6386,2.7066,2.6555,2.7954,2.8045,2.8442,3.6982,4.8473,7.7815,7.3972,7.3256,8.0068,7.9516,7.5655,7.5108,7.3407,7.5123,7.6776,7.4844,7.3981,7.4932,7.5035,7.598,7.5885,7.2358,6.9399,6.9836,6.9571,6.6889,6.9762,6.7802,6.0627,6.245,3.1872,3.0232,2.9143,2.8713,3.055,3.2198,3.5257,3.243,2.6672,2.6884,2.6229,2.6842,3.255,2.6305,2.5901,2.6279,2.5911,2.6112,2.5038,2.541,2.5541,2.4861,2.4638,2.4913,2.3358,1.847,2.2047,2.5593,0.75843,-1.9805,-1.6813,-1.94,-1.6961,-1.8329,-1.2952,0.88929,0.90712,-0.29832,-4.714,-3.2767,-3.4452,-3.506,-3.7299,-3.53,-3.7093,-3.6052,-3.5069,-3.2945,-3.3961,-3.198,-3.2781,-3.05,-2.3855,-1.9229,-2.4404,-2.0169,-2.6147,-2.9668,-3.3047,-3.3921,-3.3304,-3.444,-3.5125,-3.49,-3.3083,-3.154,-2.9467,-3.0577,-2.9584,-2.7501,-2.653,-2.7339,-1.2891,-2.9407,-3.0169,-2.8085,-2.003,-2.4619,-2.5964,-2.6068,-2.5027,-2.7788,-2.5143,-2.2895,-2.8482,-3.0104,-3.0774,-2.9649,-2.9375,-3.1225,-3.1816,-3.1465,-2.953,-2.9641,-2.7788,-2.9447,-2.989,-3.1613,-3.2248,-3.2213,-3.2722,-3.0846,-2.8949,-2.8625,-2.7693,-2.6905,-2.5952,-2.5968,-2.794,-2.947,-3.2296,-2.9414,-2.5702,-2.2011,-2.0866,-2.123,-2.0655,-1.8152,-2.0315,-1.8749,-1.849,-2.007,-2.1195,-2.0323,-2.0987,-1.988,-2.0732,-1.876,-1.5844,-1.6663,-1.7732,-1.6175,-1.4641,-1.4221,-1.4686,-1.3755,-1.2492,-0.29124,0.85031,1.0485,3.1749,3.1291,2.523,2.6212,3.1425,3.7394,4.0624,4.0058,4.0169,3.8018,3.9782,3.9201,3.8488,3.3997,3.3699,3.3607,3.2574,3.0559,2.9313,2.7329,2.6991,2.6751,2.6875,2.6454,2.5759,2.7062,2.7151,2.6287,2.6469,2.6381,2.637,2.6452,2.6653,2.6451,2.6277,2.5483,2.5088,1.9388,1.7772,0.16155,-0.7863,-0.8319,-2.1204,-2.6938,-2.8634,-2.8018,-2.7474,-2.6795,-2.5542,-2.4385,-2.3261,-1.8771,-1.9742,-2.0963,-2.3549,-2.4282,-2.7332,-2.8556,-2.7811,-2.8779,-2.9499,-2.928,-2.943,-2.9237,-2.8941,-2.6822,-2.4964,-2.5115,-2.1788,-1.732,-1.6017,-1.2663,-1.0818,-0.79119,-0.34785,-0.18061,-0.72545,-0.70598,-0.90777,-1.1161,-1.2185,-1.6112,-1.7096,-1.8664,-1.7681,-1.7411,-1.7179,-0.43213,-1.5024,-1.916,-2.5917,-2.8163,-2.9174,-2.658,-2.3972,-2.318,-2.2784,-2.0109,-2.1087,-1.8293,-1.9416,-1.3063,-0.23691,-0.094461,0.19087,0.82801,2.526,4.0921,4.496,4.1104,4.0894,3.5272,3.3799,3.2507,3.2538,3.2669,3.169
3.0874,3.0437,3.0913,3.0524,2.8889,2.8846,2.865,2.8685,2.9369,2.971,3.0127,3.1995,3.2498,3.2032,3.0706,2.9491,2.9285,2.876,2.9011,2.6806,2.6144,2.5972,2.6035,2.6599,2.7084,2.7326,2.8618,2.6615,2.6207,2.6772,2.7917,2.6688,2.8886,3.091,2.9873,3.1289,3.7372,3.6083,3.3224,3.2577,3.2821,3.26,3.1371,2.9944,2.9976,2.9097,2.8172,2.7382,2.59,2.6074,2.621,3.2221,4.7209,4.3305,4.6142,4.5138,4.9242,4.8228,3.4144,3.0814,4.0738,3.294,3.0077,3.2767,3.6442,3.5699,3.7625,4.4782,3.698,3.7394,3.6471,2.6794,2.7793,2.6892,2.7889,2.824,2.9213,2.8151,3.0259,3.9287,4.986,7.0292,6.9478,7.4396,7.7212,8.2629,7.9911,7.9378,7.9647,7.7822,7.9305,7.2674,7.4485,7.5639,6.9614,6.1888,7.1836,7.3013,7.0162,6.7229,7.1908,6.3677,6.3931,3.583,3.1065,2.9055,2.9203,3.016,3.4159,3.6432,3.8002,3.2894,2.6426,2.6182,2.6334,2.6829,2.6784,2.814,3.0052,3.0654,2.7202,2.7378,2.5807,2.6063,2.5133,2.5424,2.6169,2.4627,2.0483,1.7594,2.3228,1.4941,-1.527,-0.83921,-1.9992,-1.8591,-1.637,-1.4642,-1.4574,0.48726,0.43631,-1.14,-2.5596,-4.4749,-3.2574,-3.3074,-3.4314,-3.4979,-3.6444,-3.5466,-3.4304,-3.4351,-3.31,-3.349,-3.2049,-2.9166,-3.2844,-2.7591,-3.0128,-3.2195,-3.0084,-3.1916,-3.4339,-3.4059,-3.3639,-3.2365,-3.3245,-3.4212,-3.2954,-3.2653,-2.913,-2.6638,-2.5686,-2.7656,-2.0194,-2.5795,-2.6878,-2.5073,-2.7258,-1.3898,-2.7692,-2.4101,-2.8359,-2.72,-2.5531,-2.8661,-2.2524,-2.5826,-2.5003,-2.6452,-2.6551,-2.7343,-2.7032,-2.728,-2.8107,-2.7171,-2.8599,-3.0173,-2.7419,-2.8923,-2.9883,-3.0542,-3.2055,-3.1603,-3.2074,-3.0189,-2.812,-2.7841,-2.8447,-2.8226,-2.8648,-2.6462,-2.2523,-2.0983,-2.2963,-2.5578,-2.3912,-2.426,-2.3312,-2.2402,-2.0236,-1.9631,-1.8475,-1.7608,-2.0212,-1.9972,-1.733,-1.9305,-1.8873,-1.8545,-1.9123,-1.9213,-1.7692,-1.7106,-1.6343,-1.6946,-1.6135,-1.4913,-1.5047,-1.2638,-0.94904,-0.872,-0.64139,0.54395,1.7779,3.323,2.2385,2.5421,3.2844,3.4602,3.6935,3.9991,4.664,4.1702,4.0446,3.9148,4.0797,3.7435,3.158,3.205,3.3335,3.2293,2.9357,2.7639,2.6674,2.6567,2.6711,2.651,2.6282,2.6325,2.6445,2.6203,2.6042,2.5686,2.5513,2.6645,2.6121,2.691,2.6562,2.67,2.1846,1.901,1.7636,1.5595,-1.6731,-1.9536,-1.5688,-2.2642,-2.7542,-2.7901,-2.6773,-2.6173,-2.5604,-2.5246,-2.3375,-2.1743,-2.1346,-2.2937,-2.3851,-2.6685,-2.928,-2.9556,-2.9165,-2.8446,-2.838,-2.9281,-2.8426,-2.7775,-2.7212,-2.5022,-2.4276,-2.2074,-1.8062,-1.6438,-1.3077,-1.0474,-0.74059,-0.44201,-0.34012,-0.77021,-0.86241,-0.99535,-1.1334,-1.3222,-1.7039,-2.0348,-2.0479,-2.1149,-2.0892,-1.948,-1.7608,-0.15568,-0.608,-2.1995,-2.5,-2.7535,-2.7262,-2.5888,-2.4126,-2.1805,-2.0477,-1.9741,-1.911,-1.5748,-0.26175,-0.75673,-0.7395,1.0089,0.62885,0.7766,2.3443,3.4923,4.0061,3.3803,3.2926,3.4186,3.2675,3.2255,3.0944,3.1327,3.0874
2.9078,3.0503,3.1656,3.225,3.0892,3.0109,2.9763,2.9673,3.0828,3.2075,3.3649,3.3494,3.3109,3.2817,3.2187,3.1816,3.0249,2.9798,2.9637,2.7618,2.7863,2.7317,2.6625,2.7583,2.8072,2.715,2.7529,2.6209,2.7713,2.8542,2.8339,2.7136,3.2082,2.6384,4.0149,3.1502,3.4843,3.8323,3.4606,3.5166,3.5248,3.4335,3.3017,3.244,3.1767,3.0452,2.988,2.9195,2.6765,2.6025,2.6601,2.757,3.7387,4.5033,4.3485,4.6378,4.4719,4.9833,4.6036,3.133,3.7335,4.5139,3.4186,3.6116,3.6819,3.6082,4.1307,4.4901,2.7268,3.2008,2.8252,2.8238,2.7759,2.7797,2.8688,2.8364,2.9085,2.82,2.9413,2.7236,3.3188,3.6801,5.2566,7.1284,7.9139,7.5962,7.5887,7.5672,7.3355,7.0269,7.4431,7.0401,7.0763,7.1888,6.7691,5.0386,6.0808,6.8481,6.9658,6.544,6.9235,6.3668,6.1646,4.9245,3.1346,2.9095,3.0948,3.4514,3.5173,3.3735,3.1501,2.9611,2.6823,2.6561,2.982,3.103,2.633,2.7008,3.0298,2.9572,2.8687,2.9349,2.637,2.5997,2.6354,2.5682,2.4788,2.298,1.5254,1.9635,1.581,-0.88109,-2.3852,-1.7191,-0.33004,-2.2775,-1.8915,-1.5826,-1.7287,-0.048961,-0.10052,-1.1681,0.08451,-5.9631,-3.0265,-3.1831,-3.2132,-3.2184,-3.5177,-3.5266,-3.3266,-3.1457,-3.1703,-3.1263,-3.3915,-3.2254,-3.2574,-3.2477,-3.1591,-3.2856,-3.1568,-3.1028,-3.199,-3.3279,-3.2882,-3.2181,-3.1537,-3.0449,-3.0109,-3.0498,-2.9641,-3.0692,-2.9864,-2.9987,-3,-2.5817,-2.0995,-2.3743,-2.3536,-2.7627,-2.0163,-0.99879,-1.8637,-2.6515,-2.5784,-2.5698,-1.6033,-2.628,-2.2972,-1.9243,-2.1949,-2.3232,-2.3026,-2.4132,-2.5616,-2.5193,-2.6466,-2.6651,-2.1383,-2.7469,-2.8448,-2.9305,-3.0467,-3.0618,-3.2006,-3.1282,-3.0813,-2.8084,-2.7395,-2.7255,-2.7439,-2.6703,-2.63,-2.4095,-2.1257,-2.1278,-2.2412,-2.289,-2.3605,-2.3216,-2.1648,-2.1378,-1.9607,-1.8536,-1.5895,-1.4131,-1.825,-1.6922,-1.6408,-1.7558,-1.9148,-1.9099,-2.012,-1.6494,-1.7381,-1.6219,-1.6547,-1.621,-1.4821,-1.406,-1.1086,-0.86843,-0.051869,-0.90566,1.0842,2.3554,3.2092,2.2877,2.7714,2.869,3.3161,3.6465,4.7618,4.828,4.1277,3.8856,4.0278,3.5436,4.0258,3.0373,2.923,2.8734,2.8128,2.7153,2.6854,2.7009,2.6606,2.6442,2.664,2.6889,2.6717,2.5528,1.4034,1.9463,2.3142,2.6817,2.6036,2.7064,2.7506,2.7169,2.3199,1.8711,1.6125,1.0197,-2.7114,-2.3576,-2.0409,-1.6618,-2.303,-2.7196,-2.7386,-2.6894,-2.5025,-2.5498,-2.3967,-2.2784,-2.2977,-2.4165,-2.6025,-2.8984,-2.8762,-3.0971,-3.0029,-2.9646,-2.9702,-2.7754,-2.7592,-2.6533,-2.7538,-2.4628,-2.3013,-2.1312,-1.8433,-1.5106,-1.2332,-1.0199,-0.36398,-0.087052,-0.65347,-0.8338,-1.079,-1.3319,-1.8187,-1.6633,-2.056,-1.9973,-2.0822,-2.1006,-2.0901,-2.0895,-1.9202,-2.0276,-2.3627,-2.4758,-2.4505,-2.6642,-2.5009,-2.3449,-2.2393,-2.1667,-1.965,-1.7833,0.30233,-1.6443,-1.0469,-0.96879,1.1329,1.5504,2.2395,2.6304,3.2229,3.2538,2.9909,3.3561,3.314,3.2355,3.2358,3.1167,3.1103,3.0199,2.9078
3.0112,3.1272,3.2702,3.2969,3.2953,3.1906,3.1141,3.1509,3.1915,3.2361,3.2742,3.2885,3.173,3.2119,3.3352,3.139,3.2348,3.2534,3.0478,2.9694,2.9039,2.8249,2.799,2.8341,2.867,2.841,2.8577,2.8575,2.891,2.9626,2.8703,2.8756,3.2351,2.9994,3.0175,2.4684,3.7182,3.7715,3.697,3.6114,3.6843,3.599,3.4662,3.4424,3.2782,3.1347,3.1119,2.9702,2.8349,2.7097,2.6677,2.6154,2.9358,3.4089,3.746,3.5902,3.6876,3.9173,3.1669,3.6082,4.0109,4.156,4.1794,3.1833,3.2113,3.3589,4.2302,3.9086,2.757,2.7541,2.7398,2.8233,2.8289,2.95,2.9514,3.0342,3.089,2.8988,2.8674,2.8258,2.9066,2.9206,3.1243,3.8067,3.4167,4.3225,6.4552,7.9581,7.9607,7.6243,7.1694,6.9917,7.6344,5.9162,3.9931,3.3641,3.1779,5.798,5.7834,6.0778,6.3595,5.9464,4.8917,5.3071,4.1109,3.6595,3.6407,3.7688,3.5065,3.4375,2.8939,3.2507,2.9725,2.7356,2.9405,2.7219,2.7669,2.8811,3.311,3.4798,3.1637,2.7406,2.6729,2.5072,2.6472,2.5508,2.6719,1.6468,1.7464,2.3762,1.2987,-1.8766,-0.38088,-0.47272,-1.493,-1.3561,-2.0737,-1.8533,-1.8137,-0.81421,-0.50684,-0.96728,1.1418,-3.5579,-3.6776,-3.3211,-2.0168,-2.989,-2.8806,-3.3405,-3.4209,-3.3,-3.4439,-2.3504,-2.6437,-3.2987,-3.3338,-3.3937,-3.2479,-3.2854,-3.23,-3.1396,-3.0659,-3.1292,-3.1939,-3.1502,-2.9958,-2.8522,-3.0885,-2.7828,-3.2302,-3.219,-3.4269,-3.3002,-3.3443,-2.928,-2.7987,-2.4599,-2.5221,-2.6274,-2.498,-2.4744,-0.63221,-1.1388,0.21445,-2.1249,-2.872,-2.2425,-2.1622,-1.2354,-1.958,-1.9042,-1.7664,-1.9235,-2.1774,-2.2477,-2.46,-2.5745,-1.8485,-1.9197,-2.2152,-2.6986,-2.7702,-2.9367,-2.945,-2.9276,-2.9223,-2.8362,-2.7591,-2.6777,-2.7075,-2.7111,-2.533,-2.4002,-2.2491,-2.3185,-2.4788,-2.0933,-2.1989,-2.1056,-2.1365,-2.0503,-1.9353,-1.8467,-1.9244,-1.7327,-1.4831,-1.5197,-1.4705,-1.6713,-1.7998,-1.6628,-1.7709,-1.7311,-1.637,-1.5254,-1.5868,-1.5278,-1.526,-1.3102,-1.3157,-1.0646,-1.0505,-0.76651,-1.0568,3.1273,2.5833,3.1294,1.861,2.7341,2.8587,3.6885,4.9895,4.8516,4.1871,4.0836,4.1041,3.96,3.8711,3.1587,2.936,2.865,2.7856,2.7214,2.6979,2.6197,2.6627,2.6123,2.5389,2.4689,2.1448,1.2714,0.27016,-0.018973,1.2204,2.566,2.7554,2.7142,2.7545,2.694,2.5354,1.8827,1.6324,1.6855,-2.7278,-2.333,-1.7956,-2.0858,-2.3383,-2.6982,-2.743,-2.639,-2.4921,-2.3204,-2.4954,-2.4199,-2.4578,-2.688,-2.946,-3.0958,-3.036,-3.1054,-3.1971,-3.1149,-3.0526,-2.821,-2.7097,-2.7579,-2.6724,-2.3755,-2.1636,-2.0315,-1.779,-1.5491,-1.187,-0.59626,-0.097348,-0.62677,-0.98597,-1.1871,-1.2645,-1.7043,-1.8112,-2.1055,-2.1503,-2.065,-2.1797,-2.3878,-2.299,-2.2628,-2.1537,-2.3634,-2.4396,-2.3793,-2.5257,-2.4936,-2.3617,-2.2601,-2.0982,-2.0865,-1.8639,-1.5185,-0.014381,1.6231,1.3419,1.4215,1.809,2.6471,2.6806,3.0415,3.1236,3.1863,3.1279,3.2042,3.182,3.1506,3.1327,3.0683,3.0399,2.9906,3.0112
3.01,3.0543,3.0231,3.0524,3.1981,3.2765,3.2975,3.2997,3.2409,3.2692,3.282,3.312,3.2598,3.219,3.1834,3.2356,3.2703,3.5105,3.251,3.0237,2.9796,2.9387,2.8778,2.9556,2.9622,2.9236,2.9773,2.9791,2.8745,3.0434,2.9477,2.9325,3.2628,3.2165,2.4878,1.7075,2.7591,3.748,3.7329,3.8286,3.8204,3.9245,3.8053,3.4796,3.3508,3.3332,3.2122,3.106,2.9425,2.7954,2.7297,2.7014,2.6134,2.7206,3.2559,3.2448,2.6827,2.6941,3.8052,3.3599,3.3267,3.9593,3.8601,3.9565,3.8013,4.0011,3.8103,3.6207,2.7709,2.7626,2.7785,2.9841,2.9933,3.0506,3.0462,3.1966,3.1213,2.9709,2.8544,2.885,2.9086,2.9445,2.8891,2.8712,2.7195,2.8271,3.0593,3.4769,4.0902,3.9743,4.1002,3.9545,4.2542,3.057,2.7907,2.9595,3.823,4.3227,3.9422,5.3564,5.6631,5.4471,4.7445,4.7994,4.8738,4.5704,4.1639,3.9107,3.5845,3.3292,3.1781,3.1231,2.9398,2.9081,3.1326,2.7668,3.1058,3.1316,2.9995,3.6696,2.9204,2.6934,2.5561,2.5913,2.6356,2.6173,1.8306,1.3988,2.4616,0.86108,-1.641,-2.617,-2.6664,-2.245,-1.7146,-0.78928,-2.1542,-1.9082,-1.8268,-1.629,-1.1011,0.3825,0.95905,-3.1678,-2.7207,-2.0682,-2.9424,-2.6073,-2.8953,-2.5241,-3.0632,-3.1879,-2.119,-3.4685,-3.3286,-3.2648,-3.1701,-3.2511,-3.1595,-3.0453,-3.0943,-3.198,-3.2273,-3.1614,-3.0406,-3.1094,-3.0726,-3.2943,-3.1765,-3.3931,-2.935,-3.3481,-3.3848,-3.3617,-3.2046,-3.0271,-2.9383,-2.5252,-2.6641,-2.735,-2.6868,-2.6163,-2.1676,-0.96921,-1.359,-2.3914,-2.5871,-2.1173,-2.1372,-1.8587,-1.6867,-1.5829,-1.3747,-1.2557,-1.8705,-1.9121,-2.1168,-2.3317,-2.3058,-1.3617,-1.6727,-2.0576,-2.4819,-2.567,-2.6939,-2.7639,-2.7918,-2.7836,-2.7678,-2.6447,-2.6423,-2.6501,-2.5334,-2.4333,-2.275,-2.1752,-2.0232,-2.1049,-2.0843,-2.0974,-2.0164,-2.009,-1.8864,-1.8953,-1.8227,-1.7986,-1.6841,-1.7518,-1.7915,-1.8364,-1.7912,-1.6232,-1.7087,-1.7298,-1.6015,-1.6222,-1.4621,-1.3124,-1.3441,-1.3637,-1.2322,-1.1483,-1.2496,-1.0791,-0.99663,-0.50734,2.8661,2.9573,2.7123,0.91711,2.7701,3.0657,3.8862,5.1092,4.5874,4.203,4.0802,4.0458,3.7507,3.3558,2.9208,2.9839,2.7865,2.6852,2.0582,1.385,1.5028,1.3872,1.1026,0.9957,0.51469,0.42246,0.023646,-0.13558,-0.60611,1.5479,2.631,2.7113,2.7884,2.7996,2.6548,2.5775,2.6237,1.2859,-2.3852,-1.9352,-1.8256,-2.194,-2.4042,-2.6526,-2.7945,-2.5672,-2.5145,-2.3783,-2.3796,-2.5537,-2.7203,-2.988,-3.2098,-3.1892,-3.2667,-3.2607,-3.3082,-3.206,-3.1882,-3.0773,-2.713,-2.7254,-2.4802,-2.3887,-2.1245,-1.9684,-1.7018,-1.3264,-1.1451,-0.42269,-0.37384,-1.0697,-1.1463,-1.4386,-1.6773,-2.0261,-2.3522,-2.1575,-2.2774,-2.4435,-2.499,-2.6081,-2.4809,-2.6181,-2.5552,-2.4868,-2.4299,-2.2663,-2.3325,-2.3907,-2.3528,-2.1917,-2.1211,-1.904,-1.6001,-1.1901,-0.96276,-0.78384,-0.6738,-0.34698,1.8751,2.8549,3.0628,3.031,3.2124,3.1288,3.1624,3.1556,3.1515,3.2064,3.2654,3.1373,3.0509,3.038,3.01
3.0798,2.9448,3.068,3.1233,3.3504,3.592,3.7641,3.8335,3.8831,3.6748,3.4814,3.3762,3.5744,3.3715,3.2527,3.2495,3.3116,3.3281,3.1759,3.099,3.0556,3.0367,2.9755,3.1052,3.1344,3.1336,3.1476,3.0888,3.024,3.0922,3.2278,3.1695,2.9737,2.9287,3.1807,1.9547,1.8594,3.1021,3.4156,3.7335,4.1074,3.7126,3.599,3.5321,3.42,3.5119,3.4357,3.3425,3.1381,2.9785,2.774,2.7882,2.7234,2.7386,2.7162,2.6843,2.9336,2.6469,3.1006,3.118,3.0006,3.0918,2.927,3.0324,3.4953,3.1776,2.9996,3.296,2.9004,2.8,2.8055,3.0122,2.9143,2.9851,3.1494,3.1639,3.043,3.0842,2.9955,2.9029,2.9561,2.9721,2.915,2.85,2.7524,2.8957,2.8601,2.7918,2.6585,2.9224,2.9359,3.0193,3.1974,2.7956,3.25,4.4176,3.1588,3.666,3.8094,5.1854,5.201,4.9875,4.4869,5.1673,4.898,4.2508,4.0229,3.8962,3.5227,3.3945,3.5806,3.2853,3.2745,2.9858,3.7067,2.9864,2.9952,3.3078,3.4342,3.1792,2.7154,2.6288,2.668,2.6819,2.6002,1.3939,0.93319,1.999,1.7938,-2.5044,-2.5989,-0.13286,0.24158,-1.2945,-1.9033,-1.1294,-0.8232,-2.5599,-2.376,-2.0531,-0.4961,0.76342,-0.50466,-0.49368,0.79475,-0.45894,-1.2908,-1.5528,-1.6469,-3.2718,-3.1218,-2.9559,-2.5809,-3.1249,-3.2492,-3.0992,-3.162,-3.1789,-3.2112,-3.0632,-3.1287,-3.2538,-3.0574,-2.8219,-3.1829,-3.0646,-3.1414,-3.1055,-3.1112,-3.0402,-3.2474,-3.233,-3.1781,-3.2144,-2.9661,-3.1578,-2.9355,-2.9608,-2.9123,-2.7606,-2.6866,-2.5754,-2.2704,-2.3581,-2.5827,-2.1039,1.3566,-1.0039,-0.02475,-0.35764,-1.7713,-0.46781,-1.1903,-1.9095,-1.6613,-1.6422,-1.9766,-2.3701,-1.8678,-2.2352,-1.4232,-1.8094,-1.7182,-2.2557,-2.3837,-2.4631,-2.5205,-2.6014,-2.6316,-2.6595,-2.5989,-2.665,-2.5064,-2.3812,-2.3383,-2.4032,-2.1435,-2.0181,-1.8058,-1.9107,-1.962,-1.8724,-1.9602,-1.9422,-1.8066,-1.7662,-1.6525,-1.9833,-1.9321,-1.9539,-1.9135,-1.8323,-1.5784,-1.6223,-1.6548,-1.5726,-1.5509,-1.433,-0.91827,-1.2405,-1.2977,-1.3708,-1.1785,-0.99158,-1.148,-0.35094,0.19686,2.8484,3.0542,2.356,1.5918,2.9095,3.4129,4.7751,5.2802,4.6335,4.1877,3.9162,4.2308,3.6719,3.2432,2.9591,2.8994,2.8454,1.9936,0.27987,-0.088053,0.066889,0.42564,-0.36161,-0.38745,-0.30355,-0.20622,-0.27531,-0.29866,0.23931,2.7155,2.8324,2.8085,2.8362,2.5831,2.7319,1.8849,-0.26007,-2.3312,-1.8453,-2.2361,-2.5444,-2.5755,-2.5769,-2.6103,-2.6477,-2.7414,-2.4605,-2.383,-2.6713,-2.6455,-3.0003,-3.1967,-3.1129,-3.0875,-3.1792,-3.1715,-3.1759,-3.2985,-2.9684,-2.6982,-2.4488,-2.3793,-2.1993,-2.0216,-1.8803,-1.4283,-1.181,-0.87096,-0.46286,-0.65011,-0.95794,-1.1691,-1.4646,-1.8897,-1.9506,-2.1199,-2.2698,-2.4472,-2.6323,-2.847,-2.7726,-3.0555,-2.9077,-2.5818,-2.5924,-2.5222,-2.31,-1.9996,-2.2669,-2.3359,-2.1494,-2.0197,-1.7066,-0.96883,-0.69965,-0.65013,-0.75814,0.7125,2.5505,2.9845,3.0079,3.1235,3.2359,3.3529,3.1665,3.1927,3.2071,3.206,3.231,3.1735,3.1762,3.0688,3.0515,3.0798
3.1492,3.1619,3.1238,3.2879,3.6712,3.6607,3.9186,3.9935,4.304,4.2567,3.8078,3.6076,3.6525,3.533,3.3854,3.3663,3.3975,3.2757,3.2259,3.2447,3.1687,3.1316,3.1404,3.2651,3.2039,3.3536,3.352,3.3281,3.2074,3.1111,3.0334,3.1237,3.3309,3.0322,3.3207,2.6305,1.6775,2.5155,3.7516,3.5908,3.8806,3.8344,3.6553,3.7387,3.6362,3.6051,3.6107,3.4266,3.2693,3.1716,3.006,2.8372,2.7626,2.7859,2.8078,2.8052,3.1561,1.9632,1.7292,2.1167,2.1073,2.3,2.658,2.429,2.6679,2.2778,2.5031,2.9022,2.8978,2.8282,2.89,2.9234,2.8922,3.1826,3.3864,3.2833,3.1338,3.1785,3.2306,3.12,3.0286,3.0597,3.0264,2.9937,2.9222,2.8759,2.9099,2.8957,2.841,2.8851,2.8413,2.8314,2.974,3.2865,4.204,3.1638,3.2854,2.8565,4.5273,4.5179,4.6985,4.8806,4.6763,4.6986,4.8281,4.1521,3.6683,3.5167,3.3165,3.2326,3.1485,3.3782,3.4326,3.3894,3.1352,3.1396,3.2099,3.4724,3.1883,2.8092,2.8578,2.7354,2.608,0.97986,0.51462,2.0424,2.0126,0.92933,-3.1866,-2.1493,-1.7333,0.1807,-2.2064,-1.5133,-1.7302,-2.5584,-1.3133,-2.6993,-2.2574,-2.0069,-0.47793,1.3364,-0.032735,-1.6937,-0.68206,-2.3356,-3.21,-2.3864,-2.534,-2.1054,-2.9046,-2.8324,-2.4611,-2.3911,-3.0404,-2.8807,-2.7267,-3.0021,-3.2489,-2.7743,-2.7233,-2.9666,-2.023,-2.6578,-3.0156,-3.236,-3.2793,-3.2726,-3.2275,-3.3377,-3.175,-3.0837,-3.2034,-3.1131,-2.9755,-3.0134,-3.0497,-2.9777,-2.8996,-2.8213,-2.8096,-2.7823,-2.3642,-2.4718,-2.3629,-2.1135,-1.5041,-2.1248,-0.57731,-0.96894,-0.4409,-1.0857,2.1111,-0.72799,-2.3278,-2.2298,-2.0975,-2.3305,-1.5775,-1.8536,-1.9153,-1.9132,-1.7491,-1.6654,-1.921,-1.9874,-2.3136,-2.542,-2.5662,-2.5807,-2.3701,-2.5638,-2.4535,-2.4445,-2.3287,-2.1989,-2.3193,-2.0445,-1.8831,-1.8539,-1.8879,-1.8085,-1.8721,-2.0314,-1.8404,-1.7921,-1.8209,-1.6451,-1.7836,-1.6748,-1.8298,-1.6487,-1.6162,-1.4948,-1.5229,-1.5549,-1.5657,-1.3607,-1.2532,-1.2176,-1.1288,-1.1077,-0.93675,-1.0051,-0.27216,-1.0692,-0.77217,1.5065,2.7525,3.1796,0.9431,1.9198,2.8357,3.4437,5.1919,4.8372,4.4768,4.3348,4.6802,4.9417,4.2017,3.166,2.8122,2.8338,1.3234,-0.7227,-0.81907,-0.73999,-0.69113,-0.64764,-0.76942,-0.63453,-0.15232,-0.45592,-0.50112,-0.75833,2.7488,2.7824,2.7896,2.8996,2.326,2.662,2.3301,2.7851,0.012903,-2.1834,-2.2411,-2.6338,-2.5572,-2.6049,-2.6913,-2.7231,-2.7196,-2.5618,-2.5573,-2.7954,-2.8309,-2.8854,-3.0589,-3.0026,-3.0542,-2.9531,-3.0726,-3.1185,-3.0784,-3.0576,-2.6953,-2.7453,-2.5198,-2.1793,-1.9425,-1.5636,-1.2123,-0.89389,-0.33039,-0.29125,-1.0604,-1.1259,-1.3672,-1.6283,-1.9663,-2.0644,-2.2032,-2.5868,-2.697,-2.8371,-2.9233,-2.9938,-3.0277,-2.8593,-2.6828,-2.7847,-2.6754,-2.5907,-2.5423,-2.366,-2.2704,-2.0874,-1.8464,-1.551,-1.0689,-0.22785,-0.041976,0.38735,2.8532,2.8273,3.0676,3.0559,3.2073,3.1573,3.1432,3.109,3.2512,3.1884,3.2402,3.0586,3.0843,3.1168,3.0999,3.1085,3.1492
3.1872,3.2253,3.2629,3.4519,3.5442,3.869,4.1274,4.3174,4.0316,3.7558,3.9941,3.7322,3.7952,3.5481,3.4203,3.4231,3.5331,3.3861,3.3347,3.381,3.4985,3.2827,3.3635,3.264,3.3104,3.4923,3.712,3.4788,3.2248,3.1934,3.1221,3.1645,3.3035,3.0192,3.1152,3.4836,2.098,1.9411,2.7318,3.5357,3.8092,3.7174,3.8133,3.8767,3.8274,3.8066,3.6101,3.4169,3.3364,3.1353,3.0301,2.9409,2.8816,2.8915,2.8373,2.968,3.3917,3.0094,1.9246,-0.38639,-0.26052,-0.29806,-0.348,-0.45299,0.010936,0.11117,2.5537,2.7593,2.8922,2.8164,2.8617,2.8832,2.9486,3.11,3.0978,3.3195,3.315,3.3096,3.2645,3.2754,3.2818,3.2852,3.3496,3.1063,3.1126,3.3897,3.2561,2.9507,2.8814,2.9077,2.8438,2.8711,3.003,3.4548,3.8539,3.1749,3.149,3.0035,4.1095,4.3636,4.6777,4.5053,4.305,4.5078,4.4714,4.2408,3.388,3.2214,3.3863,3.1301,3.2715,3.1437,3.1715,3.1255,3.189,2.9912,3.0759,3.1676,2.7561,2.647,2.9247,4.5176,-0.087071,1.0726,1.4925,0.63239,0.6666,-3.8589,-2.7801,-2.3675,-1.1404,-0.92452,-0.27311,-0.48548,-2.1376,-1.904,-2.3051,-1.6802,-1.9732,-1.932,-1.1344,0.45853,0.19816,-1.0331,-3.615,-2.2973,-3.0127,-3.1144,-3.1966,-2.7042,-0.941,-1.9655,-2.1347,-2.7478,-1.6697,-2.885,-2.7318,-2.1532,-2.6279,-1.36,-2.8361,-1.5891,-1.9954,-2.6114,-3.0645,-3.2772,-3.1558,-3.2123,-2.788,-3.2101,-3.0549,-3.0552,-2.9804,-3.071,-3.1177,-2.1688,-2.8608,-2.7068,-2.9738,-2.9048,-2.7977,-2.8198,-2.5863,-2.6052,-2.4512,-2.1155,-2.2012,-1.0206,-2.0175,-1.9212,-1.8478,-1.4879,-1.2347,0.71112,1.8296,-0.8788,-1.8266,-1.8762,-1.8126,-1.5661,-1.8677,-1.6563,-1.482,-1.6018,-1.4828,-1.5102,-1.9477,-2.2789,-2.5234,-2.5323,-2.4645,-2.4715,-2.5098,-2.3804,-2.3299,-2.3508,-2.3159,-2.1303,-2.1655,-2.1548,-2.108,-2.0753,-1.7966,-1.9335,-2.04,-1.9641,-2.0377,-1.9628,-1.82,-1.6941,-1.6934,-1.5551,-1.4863,-1.3929,-1.4112,-1.4021,-1.3941,-1.4122,-1.2857,-1.2574,-1.291,-1.2717,-1.0355,-0.91675,-1.027,-0.79085,-0.80209,-0.6553,2.4585,2.7366,3.0393,0.28245,2.4257,3.0352,4.2731,5.3358,4.9731,4.8562,4.7626,4.8698,4.9605,3.05,2.8958,2.1622,0.39108,-0.75024,-0.91471,-0.84348,-0.92777,-0.69953,-0.92894,0.65934,2.7386,2.0731,-0.19961,-0.57247,0.87857,2.0085,1.8347,1.7852,2.765,2.6266,2.8533,2.3697,1.711,0.53822,-1.8768,-2.3994,-2.458,-2.5511,-2.5008,-2.586,-2.9088,-2.8424,-2.8295,-2.8396,-2.883,-3.0242,-2.9981,-2.9945,-3.0023,-2.9842,-2.9164,-3.0763,-3.0363,-2.9153,-2.6946,-2.5462,-2.5238,-2.2782,-1.9692,-1.7587,-1.36,-0.80226,-0.41151,-0.9969,-0.999,-1.2135,-1.5773,-1.9891,-2.0016,-2.1992,-2.5927,-2.7109,-2.667,-2.8222,-2.8957,-2.9243,-2.9736,-2.8721,-2.7184,-2.8087,-2.7493,-2.6433,-2.5404,-2.3684,-2.1856,-2.0432,-1.7192,-1.1903,-0.92288,-0.27135,0.39753,1.9879,2.8923,3.0418,3.2219,3.1651,3.079,3.1014,3.1285,3.1446,3.1892,3.1851,3.2372,3.2225,3.2008,3.1508,3.107,3.1868,3.1872
3.26,3.2898,3.3044,3.465,3.5566,3.9543,4.5839,3.8471,4.0861,3.688,3.6721,3.81,3.802,3.6452,3.6029,3.6864,3.5689,3.5619,3.541,3.7374,3.5247,3.4224,3.425,3.4106,3.3614,3.4863,3.7812,3.3891,3.2087,3.1543,3.1024,3.0571,3.1516,3.1279,3.3973,3.2672,2.7271,1.821,2.1268,2.8754,4.0193,3.8479,3.8321,3.8544,3.8045,3.7914,3.6,3.4706,3.2218,3.1177,3.088,2.9547,2.9337,3.0741,3.0442,3.0157,3.0406,3.717,3.4782,3.1333,-0.11648,-0.38647,-0.25772,-0.25938,0.48468,0.74636,1.2325,2.5434,2.8517,2.9447,2.9441,2.8552,2.9344,2.9385,3.1585,3.3781,3.4005,3.3652,3.2629,3.2523,3.3967,3.6437,3.492,3.4666,3.702,3.4665,3.1899,2.9499,2.9079,2.9379,2.9038,2.918,2.9814,3.7113,3.5321,3.1125,3.1451,4.0006,3.8584,3.9741,4.421,4.3044,4.2835,4.2053,4.1505,3.8868,3.7592,3.3843,3.0638,3.021,3.0667,3.1857,3.0748,2.8454,2.8785,3.0792,2.9058,2.7999,2.8497,2.8817,2.633,4.4361,-1.9469,-2.6971,-3.0554,-3.8141,-2.6907,-2.6731,-2.5549,-2.4498,-1.815,-2.9781,-2.7815,-2.6388,-0.99281,-1.1125,-2.5801,-1.7978,-2.0076,-1.8429,-1.4483,-0.29908,0.57134,-0.2342,-0.90774,-3.8125,-3.4338,-3.1959,-2.8569,-2.5185,-2.7508,-2.9106,-2.3883,-0.0029462,-2.7496,-2.0629,-2.0152,-2.0987,-1.8684,-3.1032,-2.6887,-2.4681,-1.9756,-2.103,-2.9728,-2.7461,-2.7113,-3.189,-3.3309,-2.9239,-3.1626,-2.9129,-2.7841,-2.7372,-2.3304,-2.2278,-1.6038,-2.2803,-2.5128,-2.7188,-2.6856,-2.8471,-2.7802,-2.7204,-2.3946,-2.2739,-2.2022,-2.188,-1.8827,-1.796,-1.7943,-1.792,-1.7476,-1.8849,-1.6361,-1.4487,-1.068,0.03593,1.3765,-0.6335,-2.2412,-1.7292,-1.5018,-1.6249,-1.2912,-1.286,-1.6555,-2.2452,-2.5063,-2.4557,-2.458,-2.303,-2.4676,-2.5942,-2.6315,-2.6558,-2.3934,-2.6509,-2.3073,-2.3266,-2.1614,-2.3361,-2.1151,-2.0152,-2.0219,-2.0741,-1.9563,-1.8132,-1.831,-1.8671,-1.8061,-1.6797,-1.1871,-1.2702,-1.4036,-1.2816,-1.1791,-1.1786,-1.0806,-1.2018,-1.132,-1.1323,-1.08,-1.0967,-1.0132,-0.93657,-0.8961,-0.37774,-0.47006,1.0739,2.8106,0.31243,0.27317,2.0385,3.0675,4.4763,5.0551,5.2414,5.0229,4.9584,4.291,3.1794,3.1611,1.5289,0.4189,-0.63284,-0.8297,-0.74241,-1.0483,-0.062223,2.7037,2.7803,2.8307,2.7931,1.5228,0.74423,0.99773,2.4461,2.9973,3.0835,2.7167,2.6581,2.489,2.4249,2.6563,1.7429,0.69311,-2.0559,-2.063,-2.3157,-2.449,-2.5913,-2.5978,-2.8448,-2.8608,-2.9482,-2.9473,-2.9242,-2.9217,-2.9984,-2.947,-2.9242,-2.8259,-3.0197,-2.8482,-2.6085,-2.6007,-2.4106,-2.2107,-2.0223,-2.0171,-1.6605,-1.3284,-0.90702,-0.67688,-0.081048,-0.80018,-1.4007,-1.918,-1.9703,-2.2934,-2.3515,-2.6748,-2.7014,-2.6693,-2.6306,-2.7363,-2.7845,-2.6825,-2.6122,-2.6489,-2.7703,-2.6553,-2.5288,-2.4044,-2.3317,-2.1364,-1.9259,-1.6859,-1.4023,-1.0218,-0.50304,0.48143,2.6768,3.001,3.1376,3.1922,3.2528,3.2202,3.1858,3.166,3.1671,3.1612,3.2822,3.2395,3.1898,3.184,3.2292,3.221,3.2174,3.26
3.3388,3.3397,3.3552,3.4592,3.5145,3.673,3.7371,3.6361,3.6521,3.6843,3.5728,3.4867,3.6697,3.6463,3.4859,3.5596,3.9028,3.8322,3.7686,4.3685,3.5298,3.5148,3.4532,3.478,3.5023,3.6487,3.5576,3.4023,3.2436,3.2037,3.2498,3.2051,3.2694,3.2789,3.3647,3.6699,3.3287,2.7303,1.6791,2.8975,3.7326,3.9572,3.9629,3.8071,3.9881,3.7608,3.6563,3.3808,3.2294,3.125,3.113,3.0848,3.0786,3.0592,2.9934,3.0348,3.0184,3.2031,3.2328,3.0454,1.2291,-0.34544,0.77998,0.011942,0.029476,0.11403,0.43595,1.0502,2.5479,2.8221,3.0566,3.0719,2.969,2.8977,3.2046,3.1765,3.1912,3.2974,3.5432,3.6243,3.3476,3.5378,3.2025,3.135,3.1945,3.3349,3.408,2.9272,2.9323,2.9636,2.9469,2.896,3.0131,3.6185,3.5823,3.2001,3.0464,3.7378,4.0052,4.0942,4.2757,3.7948,3.9548,3.7725,3.9912,2.9428,3.3235,3.2848,3.2202,2.934,3.0088,3.0868,3.0426,3.0576,2.9788,2.8131,2.7761,2.8294,2.3528,1.2416,1.2597,2.2256,-1.3407,-1.3429,-2.0983,-2.679,-2.7128,-2.6494,-2.3135,-2.0971,-2.7427,-2.7962,-2.7978,-2.6714,-2.48,-2.4353,-2.2769,-1.0901,-1.7219,-1.6926,-1.7037,-1.6757,0.92133,-0.29195,0.15563,-0.82258,-3.8874,-3.4356,-2.5323,-2.7048,-2.5424,-2.5816,-2.5211,-2.8505,-2.741,-2.8145,-2.4049,-2.0373,-2.3956,-1.4648,-2.6459,-1.7801,-1.3023,-1.9319,-2.5761,-2.6475,-3.1197,-3.0478,-3.1472,-2.1676,-2.9243,-2.7375,-2.4665,-1.4679,-2.0664,0.57065,-1.3152,-1.2882,-0.23572,-1.5527,-2.2924,-2.3378,-2.728,-2.7206,-2.5642,-2.4376,-2.3454,-2.2584,-1.9635,-1.8558,-1.9059,-1.6595,-1.0189,-1.041,-2.0823,-1.5841,-1.5589,-1.5133,-1.6339,-1.4007,2.027,0.47166,-0.61694,-1.7477,-2.2429,-1.6008,-1.7673,-1.9711,-2.41,-2.4407,-2.4759,-2.5203,-2.2112,-2.3701,-2.4855,-2.5079,-2.4815,-2.5585,-2.3942,-2.4231,-2.2915,-2.2334,-2.2492,-2.0781,-2.2198,-2.2284,-2.1062,-2.0296,-1.7817,-1.7635,-1.8818,-1.7683,-1.4693,-1.506,-1.3575,-1.3076,-1.1062,-1.0975,-1.2013,-1.1492,-1.0187,-1.1158,-1.0937,-1.026,-0.96889,-0.74023,-0.87468,-0.63758,-0.30613,-0.32121,-0.30792,0.13113,-0.10108,0.68151,2.9798,3.4686,4.645,5.0266,5.0398,5.0704,4.165,3.2352,3.0315,1.7836,0.36725,-0.32068,-0.65016,-0.46695,2.6985,3.0213,2.9485,2.9324,2.8726,3.025,1.3549,2.0061,2.3546,3.111,3.1118,2.8631,3.2717,2.9069,3.1285,1.3582,2.0404,0.48284,1.7148,0.72699,1.1646,-1.6421,-2.4906,-2.6267,-2.4041,-2.6731,-2.6659,-2.6992,-2.8781,-2.8221,-2.7241,-2.7076,-2.8495,-2.6536,-2.5032,-2.5621,-2.536,-2.5042,-2.5329,-2.4084,-2.1398,-2.0689,-1.6991,-1.525,-1.0892,-0.73504,-0.51104,-0.041363,-0.68333,-1.2045,-1.6481,-2.0069,-2.1837,-2.3066,-2.5242,-2.5662,-2.5892,-2.416,-2.214,-2.1335,-2.0551,-1.9855,-2.1122,-2.3687,-2.4664,-2.3881,-2.2655,-2.1594,-2.0328,-1.8502,-1.6249,-1.3448,-1.1243,-0.42273,1.0918,2.9299,3.0713,3.1956,3.1523,3.2698,3.2628,3.2999,3.2818,3.2867,3.2511,3.2698,3.2702,3.289,3.1978,3.2014,3.2897,3.2924,3.3388
3.3791,3.3768,3.4984,3.5466,3.6302,3.5599,3.5343,3.5339,3.5508,3.6523,3.526,3.4614,3.4745,3.6616,3.4714,3.5619,3.88,4.8589,4.6693,4.1234,3.6415,3.5757,3.5842,3.6035,3.6594,3.6387,3.6209,3.458,3.3649,3.2903,3.2725,3.2728,3.4429,3.3657,3.4257,3.649,3.431,3.2215,1.669,2.6411,3.5929,4.6308,4.2,3.8813,3.7907,3.6985,3.6347,3.3953,3.3048,3.2447,3.1993,3.1265,3.1016,3.1023,3.0767,3.0696,3.098,3.0332,2.9828,3.1149,-0.032167,-0.082351,-0.12325,-0.36865,-0.31743,-0.26286,0.42516,0.62586,0.7873,2.0927,2.8901,3.1015,2.8969,2.9977,3.4583,3.0739,3.2015,3.2971,3.2759,3.305,3.2108,3.3526,3.2646,3.2374,3.0896,3.1612,3.0298,2.8611,2.8419,2.7697,2.8805,2.8023,2.8917,3.0473,3.9984,3.2511,3.1101,4.188,3.9894,3.9049,3.9033,3.9514,3.8708,3.8672,3.6763,3.3695,2.908,3.0076,2.7845,2.9566,2.9998,2.9332,2.9793,2.9221,2.8813,2.8304,2.7597,2.716,1.186,0.23421,-0.63285,0.69276,0.95146,-1.8166,-2.4586,-2.7317,-2.6031,-2.527,-1.7319,-2.3795,-2.9098,-2.829,-3.0084,-2.8815,-2.9848,-2.8928,-2.2695,-1.6997,-1.9085,-1.846,-1.5163,-1.354,-0.91286,-0.54323,-0.022608,0.96301,-0.72086,-3.3654,-1.1986,-2.3772,-2.3012,-2.9141,-2.9688,-2.1859,-2.9952,-0.35596,-1.9736,-0.65796,-1.1105,-2.9122,-2.0535,-1.6369,-1.7193,-0.74704,-2.2951,-2.8335,-2.4386,-2.5469,-2.5416,-2.4294,-2.7419,-2.6992,-2.5664,-1.408,-0.074371,-0.25123,0.24266,0.48485,-0.54159,0.071049,-1.0082,-1.7519,-2.134,-2.7455,-2.2147,-2.4199,-2.3282,-2.4971,-1.9001,-1.3,-1.5618,-1.3358,-1.6042,-1.7496,-1.8071,-1.9264,-1.8699,-1.6852,-1.5835,-1.649,-2.0476,-1.6063,1.3361,3.0811,1.0171,-2.3694,-2.1405,-2.1356,-2.2932,-2.3993,-2.4395,-2.4421,-2.5292,-2.4453,-2.3341,-2.5157,-2.5481,-2.518,-2.3881,-2.388,-2.2748,-2.1746,-2.2506,-2.2494,-2.2603,-2.3245,-2.1598,-2.0482,-1.9358,-1.7279,-1.8006,-1.7494,-1.693,-1.5148,-1.4913,-1.5321,-1.2696,-1.2972,-1.1417,-1.0902,-0.91047,-0.95645,-0.94862,-1.0235,-0.84253,-0.50018,-0.68,-0.56752,-0.40498,-0.30934,-0.19821,0.19242,-0.11861,-0.40975,1.8194,3.5415,4.2086,4.7494,5.0235,5.0563,5.0358,4.3247,3.1375,2.8682,0.93453,-0.27016,0.24865,0.24411,3.223,3.1465,2.9507,3.0058,2.9273,2.8612,1.1485,-1.5411,-1.1903,-1.4198,-1.9534,-1.2881,-0.098437,2.8604,3.0795,2.8992,2.5319,0.83153,0.22556,1.6262,0.83705,2.4071,0.0021681,-2.5743,-2.33,-2.3793,-2.4061,-2.1925,-2.4076,-2.3778,-2.5393,-2.5295,-2.6614,-2.3555,-1.9933,-2.0698,-2.2042,-2.2347,-2.3232,-2.0101,-1.927,-1.7364,-1.4451,-1.3085,-1.2505,-0.93649,-0.068408,-0.4767,-1.024,-1.3132,-1.6639,-1.8667,-2.1011,-2.2743,-2.5217,-2.4611,-2.5766,-2.5182,-2.044,-1.9516,-1.6858,-1.4762,-1.4291,-1.8885,-2.1712,-2.1012,-2.0082,-1.923,-1.7604,-1.6192,-1.3922,-1.1616,-0.87661,-0.15601,1.6026,3.0033,3.0942,3.1513,3.1691,3.3194,3.4152,3.3944,3.3701,3.3434,3.2956,3.3231,3.2962,3.26,3.2511,3.3017,3.3064,3.3074,3.3791
3.4603,3.5108,3.666,3.6741,3.5789,3.5246,3.4587,3.4665,3.6651,3.9137,3.5803,3.45,3.4527,3.4936,3.4804,3.5202,3.7045,3.7376,4.0554,4.102,3.6148,3.5264,3.5652,3.7285,3.7394,3.7178,3.6129,3.6097,3.4283,3.3189,3.2754,3.2612,3.3683,3.3451,3.3986,3.5046,3.6179,3.3098,2.1645,2.1824,2.9556,3.4427,4.5901,4.1367,3.8953,3.7441,3.628,3.4953,3.3691,3.3265,3.2818,3.1991,3.2067,3.1981,3.0685,3.0198,3.2173,3.3061,3.0058,0.95064,-0.38601,-0.55571,-0.52629,-0.54948,-0.23814,-0.20066,0.14307,0.12183,-0.01091,0.94571,2.8992,3.0083,2.9226,3.1176,3.6509,3.5931,3.6031,3.5118,3.2951,3.1924,3.1728,3.5404,3.5942,3.2534,3.7126,3.0957,3.0493,2.4441,2.0064,1.7149,2,2.3292,2.7563,3.0028,3.4023,3.0601,3.1854,4.187,3.8324,3.9962,3.4637,3.7911,3.6677,3.8717,4.0804,3.5292,2.9223,2.8133,2.7967,2.8732,2.9566,3.011,2.9463,2.9903,2.7889,2.1899,1.7368,1.5091,0.10508,-0.053334,-1.108,0.41489,1.5515,-1.8332,-2.442,-2.6962,-2.5722,-2.5082,-2.6171,-2.6,-2.8627,-2.9087,-3.0876,-3.0095,-2.9939,-2.7934,-1.1383,-1.6995,-1.7217,-1.6434,-1.651,-1.5383,-1.2467,0.42,-0.85496,0.22291,-0.21086,-1.5064,-1.7825,0.2575,0.061602,-2.032,-1.9362,-2.8462,-2.2865,-2.5226,-1.783,-1.3589,-1.7483,-2.5393,-1.3198,-1.2658,-1.3578,-0.9436,-2.2373,-2.3845,-2.486,-2.4359,-2.5475,-2.5144,-2.5585,-2.7444,-0.24546,-1.0554,-0.88852,-1.195,-0.12997,-0.49771,-1.831,-1.063,-1.0556,-1.5738,-1.8956,-2.2425,-2.2752,-2.2983,-2.0596,-0.23192,-0.51156,0.053234,-0.86107,-1.7634,-1.4804,-2.0394,-2.1221,-2.0222,-1.9355,-2.0111,-2.073,-1.7512,-1.5257,-1.3179,-1.354,-1.1484,2.2552,0.64655,-2.4695,-2.13,-2.2702,-2.3134,-2.3347,-2.3559,-2.4248,-2.4154,-2.3647,-2.5036,-2.518,-2.4782,-2.5001,-2.4784,-2.3357,-2.2105,-2.1246,-2.2453,-2.1459,-2.201,-2.2578,-2.1001,-2.0585,-1.8299,-1.9245,-1.8304,-1.8298,-1.6359,-1.5637,-1.4126,-1.2352,-1.2872,-1.3712,-1.1782,-0.98151,-0.96438,-0.88589,-0.80638,-0.7573,-0.79144,-0.66224,-0.3671,-0.24243,-0.19504,-0.016551,-0.0052543,-0.030438,-0.081547,0.54906,3.761,4.7155,4.6868,5.0899,5.0543,5.7301,5.2613,4.9722,3.6679,1.5618,0.29625,1.489,1.8674,2.8377,3.0063,3.0929,3.074,3.1155,2.266,-1.1017,-1.4487,-1.2789,-0.85096,-0.53033,-0.010279,1.4968,1.3564,2.3146,2.2877,1.8561,2.48,0.99001,2.334,1.4506,0.80868,0.096511,0.46838,-3.2968,-3.6446,-4.1972,-3.9608,-3.4385,-3.1571,-2.3187,-2.254,-2.0518,-2.1414,-1.8989,-2.1973,-2.4563,-1.9996,-1.9381,-2.1545,-1.9569,-1.7827,-1.5281,-1.1919,-0.79585,-0.58942,-0.21853,-0.25532,-0.90787,-1.2035,-1.6951,-1.9583,-2.0678,-2.432,-2.3991,-2.4017,-2.6073,-2.4971,-2.1772,-2.0562,-1.8363,-1.5997,-1.617,-1.8426,-1.8143,-1.8064,-1.612,-1.5402,-1.3523,-1.2311,-0.81689,-0.73354,-0.52649,0.021752,1.2496,3.0471,2.9994,3.104,3.1478,3.3621,3.3987,3.3735,3.4216,3.3997,3.3183,3.3321,3.3584,3.296,3.3349,3.3049,3.319,3.3474,3.4603
3.4508,3.5148,3.6376,3.5456,3.4582,3.4207,3.4141,3.4361,3.6435,4.161,3.5879,3.4615,3.4601,3.4952,3.4748,3.5315,3.5063,3.513,3.5036,3.4631,3.4193,3.5241,3.653,3.804,3.8139,3.6014,3.5952,3.7203,3.4685,3.3615,3.2512,3.2909,3.3478,3.3831,3.3679,3.4133,3.7699,3.6535,3.0585,2.0528,2.5979,3.0345,4.1152,4.5244,4.4852,3.9498,3.7591,3.6575,3.5094,3.4144,3.3454,3.3184,3.3234,3.2647,3.1766,3.2227,3.2323,3.0822,2.5131,-0.47725,-0.47681,-0.53446,-0.52907,-0.47115,-0.34355,-0.29465,-0.1224,-0.16293,-0.22269,-0.12066,2.4735,2.9748,2.963,3.0599,3.7444,3.6592,3.578,3.4196,3.4198,3.2907,3.1704,3.4428,3.5342,3.8435,3.3654,3.0462,1.1255,0.95844,0.86831,1.2621,1.2614,1.1889,0.91314,2.0656,3.0134,3.1949,3.2759,3.9532,3.8852,3.658,3.5107,3.6886,3.5728,4.1198,3.9139,3.3241,2.9993,2.7258,2.8078,3.3038,3.3822,2.9986,2.8433,2.5951,2.0213,0.66032,0.21868,-0.63616,-0.82793,-0.9414,-0.27245,1.2936,1.9633,-1.3861,-2.2495,-2.3535,-2.3239,-1.9925,-2.6144,-2.5757,-2.6599,-2.9399,-3.0321,-3.0447,-3.0693,-2.8671,-1.8364,-1.5304,-1.9811,-1.7298,-1.7958,-1.743,-1.2555,0.83561,-1.1222,-0.96545,0.20372,-0.48161,-2.932,-1.9096,-2.6264,-2.4643,-2.4334,-2.0728,-2.7478,-2.5567,-2.614,-2.9556,-1.6679,-2.4727,-2.6824,-1.7295,-1.7091,-2.3859,-2.4994,-0.28839,-2.5989,-1.2383,-1.8662,-2.2136,-1.8207,-0.67588,-0.21973,-0.21418,-1.1969,-0.74934,-0.92493,-0.81192,-1.7167,-1.7535,-1.334,-1.183,-1.7413,-2.0221,-1.9335,-1.4073,0.051289,-0.0040828,-1.1323,0.51322,-0.42946,-0.7232,-2.1948,-2.2982,-2.5601,-2.4948,-2.2732,-2.252,-2.1654,-2.1251,-1.8521,-1.4872,-1.0158,-0.8516,0.48605,-0.99343,-2.1359,-2.1405,-2.1288,-2.3356,-2.434,-2.3915,-2.4641,-2.3373,-2.4216,-2.3061,-2.3465,-2.2903,-2.4714,-2.4631,-2.4702,-2.2725,-2.2132,-2.1884,-2.2493,-2.2122,-2.2454,-2.2601,-2.1241,-2.0352,-2.063,-1.8601,-1.835,-1.7526,-1.391,-1.0106,-1.2628,-1.1714,-1.0829,-1.0656,-0.9676,-0.90753,-0.94058,-0.94057,-0.65948,-0.57671,-0.6518,-0.46688,-0.078674,0.86563,-0.43259,-0.24463,-0.18147,0.055226,-0.88779,1.0931,3.2811,3.9984,3.7871,3.766,5.4246,5.248,5.0565,4.6256,3.1769,2.0125,2.4877,2.8897,2.9583,3.1046,3.2058,3.104,3.0645,0.78082,-1.4168,-1.6063,0.59443,-0.016202,-1.2488,-1.2108,-2.6835,-3.1559,-2.7744,-1.0617,0.51034,0.64665,0.69978,1.8073,3.5452,3.9689,3.231,3.0795,0.52672,-1.7721,-1.959,-0.048513,-0.21623,-2.6007,-3.4667,-3.3597,-2.5654,-2.1189,-2.5924,-2.5996,-2.3806,-1.7729,-1.9581,-2.085,-1.8569,-1.6936,-1.331,-1.1631,-0.81021,-0.29061,-0.037032,-0.49294,-0.77847,-1.1195,-1.3598,-1.7631,-2.0225,-2.2442,-2.6437,-2.3291,-2.3728,-2.2669,-2.1824,-2.0605,-2.0085,-1.8176,-1.9282,-1.663,-1.5165,-1.4654,-1.1971,-1.0156,-0.81588,-0.81342,-0.38784,-0.20127,-0.26836,0.0072473,0.61947,2.0119,2.9748,3.0727,3.1109,3.1217,3.2657,3.4584,3.4626,3.4482,3.4008,3.3691,3.4154,3.3681,3.3235,3.2908,3.3651,3.4146,3.4508
3.4127,3.4433,3.5283,3.4634,3.4224,3.4375,3.4484,3.4612,3.6662,4.1059,3.5996,3.498,3.4742,3.5171,3.5258,3.5234,3.409,3.3981,3.4425,3.344,3.4535,3.5455,3.5441,3.6661,3.8055,3.6624,3.6283,3.6661,3.5395,3.4756,3.3757,3.3378,3.3712,3.5681,3.4348,3.4343,3.5764,3.7599,3.4934,2.7154,1.942,3.1535,3.3491,4.9065,4.7511,4.1247,3.9096,3.7178,3.6298,3.5371,3.4825,3.5722,3.6303,3.5022,3.3364,3.2869,3.3919,3.2046,0.53588,-0.25693,-0.54789,-0.79035,-0.77775,-0.63341,-0.4852,-0.38124,-0.25347,-0.2948,-0.42289,-0.3263,0.32413,3.0782,2.9441,3.0317,3.8375,3.5161,3.6197,3.6793,3.5661,3.486,3.3306,3.1541,3.6805,3.3831,2.8524,0.45902,0.65844,0.54278,0.84714,0.93896,0.9336,0.96545,0.82976,0.6666,2.4992,3.4344,3.276,3.4208,3.6802,3.4347,3.2925,3.5863,3.3848,3.2558,3.1892,3.8068,3.2585,2.8698,2.9726,2.9709,3.0426,1.9899,0.69908,0.96479,0.011913,-0.71649,-0.81315,-0.98578,-0.86852,-0.99377,0.77092,3.9619,3.2308,-0.86792,-2.2494,-1.6785,-1.6254,-2.4578,-1.9844,-2.3799,-2.6344,-2.8663,-2.9026,-2.9139,-2.8242,-1.7622,-2.0568,-1.969,-1.9445,-1.7835,-1.6225,-1.6336,-1.426,0.82727,-1.2185,-0.82378,0.6757,-0.24247,-4.1649,-2.5764,-2.131,0.63242,-1.7697,-1.7919,-2.742,-2.6887,-2.6448,-2.8293,-2.7933,-2.5162,-2.4903,-2.5514,-2.4335,-2.6318,-1.9764,-1.939,-1.7944,-1.0549,-1.8735,-2.0944,-2.0767,1.0841,0.24996,-0.19059,-0.20176,-0.73068,-1.1324,-1.1955,-0.083894,-0.80689,-1.4451,-0.93335,-0.45809,-0.85717,0.5126,1.097,0.24259,-1.029,-1.8011,-2.2644,-1.6356,-0.50981,-2.426,-2.3841,-2.4307,-2.4857,-2.2926,-2.4013,-2.4355,-2.3767,-2.2301,-1.8388,-1.4898,-1.4211,-1.9155,-1.8093,-2.1198,-1.8857,-2.2259,-2.2475,-2.3491,-2.3395,-2.3031,-2.2055,-2.263,-2.3687,-2.3072,-2.2554,-2.3998,-2.4229,-2.5749,-2.4773,-2.1668,-2.2691,-2.2933,-2.1935,-2.0926,-2.1016,-1.9395,-2.0866,-2.0319,-1.8228,-1.6252,-1.5522,-1.2252,-0.96102,-0.87907,-0.92791,-0.8275,-0.85686,-0.78198,-0.84633,-0.81914,-0.63556,-0.71384,-0.43506,-0.23363,-0.39492,-0.18429,-0.035757,-0.32296,-0.60788,-0.58771,-0.58504,0.33785,-0.07221,-0.62072,2.212,3.1982,4.3511,4.3508,4.2924,4.4414,4.5936,2.9552,3.2898,3.0944,3.0472,3.1176,3.1668,3.3194,3.2336,2.9689,-0.78848,-0.47718,-0.66694,-2.3179,-2.3783,-1.2251,-0.74813,-0.92778,1.0645,3.1664,3.7474,2.0938,1.4459,1.8749,1.4152,1.2009,1.0253,2.4208,2.0333,1.6198,3.1401,3.1117,1.1598,1.3988,3.1707,0.57093,-2.2899,-3.253,-2.4005,-2.4741,-2.3051,-2.2052,-2.1151,-1.6135,-1.6686,-1.7958,-1.6193,-1.4961,-0.91294,-0.7602,-0.33932,-0.14429,-0.74932,-1.0129,-1.4777,-1.6167,-1.8362,-2.043,-2.4202,-2.4927,-2.4764,-2.3838,-2.0573,-2.118,-1.845,-1.8025,-1.649,-1.5489,-1.6405,-1.4336,-1.2769,-0.75835,-0.62463,-0.4137,-0.37543,-0.25148,0.072177,-0.093456,-0.080281,0.3279,1.3497,3.0645,3.1034,3.1235,3.1752,3.4181,3.3402,3.3639,3.3195,3.3609,3.4034,3.3966,3.4129,3.3625,3.3565,3.375,3.3811,3.4127
